0.3450792, 0.3074779, 0.2507192
0.3450792, 0.3074779, 0.2514192
0.3450792, 0.3074779, 0.2521193
0.3459706, 0.3069551, 0.2528347
0.3459706, 0.3069551, 0.2535331
0.3459706, 0.3069551, 0.2542315
0.3459706, 0.3069551, 0.2549299
0.3459706, 0.3069551, 0.2556282
0.3512957, 0.3108659, 0.2326462
0.350415, 0.3113995, 0.2332802
0.4592262, 0.3113162, 0.293244
0.4592262, 0.3113162, 0.2938125
0.4599851, 0.310661, 0.2942766
0.4599851, 0.310661, 0.2948434
0.4599851, 0.310661, 0.2954102
0.4599851, 0.310661, 0.295977
0.4599851, 0.310661, 0.2965438
0.4599851, 0.310661, 0.2971106
0.4599851, 0.310661, 0.2976774
0.4599851, 0.310661, 0.2982442
0.4599851, 0.310661, 0.298811
0.4599851, 0.310661, 0.2993778
0.4599851, 0.310661, 0.2999446
0.4607441, 0.3100057, 0.3003884
0.4607441, 0.3100057, 0.3009535
0.4273493, 0.3388363, 0.3102736
0.4273493, 0.3388363, 0.3109129
0.4281083, 0.3381811, 0.3114141
0.4281083, 0.3381811, 0.3120518
0.4281083, 0.3381811, 0.3126894
0.4288673, 0.3375258, 0.3131839
0.4296263, 0.3368706, 0.313675
0.4296263, 0.3368706, 0.3143092
0.4303852, 0.3362154, 0.3147953
0.4311442, 0.3355601, 0.3152779
0.4311442, 0.3355601, 0.3159088
0.4311442, 0.3355601, 0.3165397
0.3605655, 0.3130648, 0.2432914
0.3605655, 0.3130648, 0.2439797
0.3605655, 0.3130648, 0.2446679
0.3605655, 0.3130648, 0.2453562
0.3605655, 0.3130648, 0.2460445
0.3605655, 0.3130648, 0.2467327
0.3605655, 0.3130648, 0.247421
0.3605655, 0.3130648, 0.2481092
0.3605655, 0.3130648, 0.2487975
0.3614343, 0.3125193, 0.2495095
0.3614343, 0.3125193, 0.2501961
0.3614343, 0.3125193, 0.2508827
0.362303, 0.3119738, 0.251588
0.362303, 0.3119738, 0.2522729
0.362303, 0.3119738, 0.2529577
0.3631717, 0.3114283, 0.2536563
0.3631717, 0.3114283, 0.2543395
0.3631717, 0.3114283, 0.2550227
0.3631717, 0.3114283, 0.2557059
0.3610591, 0.324872, 0.3012247
0.3610591, 0.324872, 0.3019264
0.3610591, 0.324872, 0.3026282
0.3610591, 0.324872, 0.3033299
0.3610591, 0.324872, 0.3040317
0.3610591, 0.324872, 0.3047334
0.3610591, 0.324872, 0.3054352
0.3610591, 0.324872, 0.3061369
0.3610591, 0.324872, 0.3068387
0.3610591, 0.324872, 0.3075404
0.3610591, 0.324872, 0.3082422
0.3619099, 0.3243086, 0.3088244
0.3619099, 0.3243086, 0.3095244
0.3619099, 0.3243086, 0.3102245
0.3619099, 0.3243086, 0.3109245
0.3619099, 0.3243086, 0.3116246
0.3619099, 0.3243086, 0.3123246
0.3627607, 0.3237452, 0.312895
0.3627607, 0.3237452, 0.3135934
0.3627607, 0.3237452, 0.3142918
0.3636115, 0.3231818, 0.3148554
0.3636115, 0.3231818, 0.3155521
0.3636115, 0.3231818, 0.3162488
0.3644623, 0.3226184, 0.3168056
0.3644623, 0.3226184, 0.3175006
0.3644623, 0.3226184, 0.3181956
0.3653131, 0.322055, 0.3187458
0.3653131, 0.322055, 0.3194391
0.3653131, 0.322055, 0.3201324
0.366164, 0.3214916, 0.3206758
0.366164, 0.3214916, 0.3213674
0.366164, 0.3214916, 0.322059
0.3477533, 0.3059094, 0.2313204
0.3477533, 0.3059094, 0.2320154
0.3477533, 0.3059094, 0.2327105
0.3477533, 0.3059094, 0.2334054
0.3553061, 0.3092195, 0.2563613
0.3553061, 0.3092195, 0.2570513
0.3553061, 0.3092195, 0.2577412
0.3553061, 0.3092195, 0.2584311
0.3553061, 0.3092195, 0.2591211
0.3553061, 0.3092195, 0.259811
0.3553061, 0.3092195, 0.260501
0.3553061, 0.3092195, 0.2611909
0.3553061, 0.3092195, 0.2618808
0.3553061, 0.3092195, 0.2625708
0.3553061, 0.3092195, 0.2632607
0.3553061, 0.3092195, 0.2639507
0.3544267, 0.3097543, 0.2646539
0.3544267, 0.3097543, 0.2653455
0.3544267, 0.3097543, 0.2660372
0.3544267, 0.3097543, 0.2667288
0.3544267, 0.3097543, 0.2674204
0.3535472, 0.3102891, 0.2681338
0.3535472, 0.3102891, 0.2688271
0.3535472, 0.3102891, 0.2695204
0.3526677, 0.3108238, 0.2702405
0.3526677, 0.3108238, 0.2709355
0.3526677, 0.3108238, 0.2716305
0.3517883, 0.3113586, 0.2723574
0.3517883, 0.3113586, 0.2730541
0.3517883, 0.3113586, 0.2737508
0.3509088, 0.3118933, 0.2744844
0.3509088, 0.3118933, 0.2751828
0.3509088, 0.3118933, 0.2758811
0.3500294, 0.3124281, 0.2766215
0.3500294, 0.3124281, 0.2773215
0.34915, 0.3129629, 0.278067
0.4290433, 0.3348735, 0.3173256
0.4290433, 0.3348735, 0.3179582
0.4290433, 0.3348735, 0.3185908
0.4290433, 0.3348735, 0.3192233
0.4298058, 0.3342218, 0.3196942
0.4298058, 0.3342218, 0.3203251
0.4298058, 0.3342218, 0.320956
0.4298058, 0.3342218, 0.3215869
0.4298058, 0.3342218, 0.3222178
0.39516, 0.326446, 0.34133
0.39516, 0.326446, 0.341993
0.4007485, 0.3362771, 0.3366129
0.4007485, 0.3362771, 0.3372809
0.4007485, 0.3362771, 0.3379489
0.4015421, 0.3356565, 0.3384164
0.4015421, 0.3356565, 0.3390827
0.4015421, 0.3356565, 0.339749
0.4015421, 0.3356565, 0.3404154
0.4023356, 0.3350358, 0.3408744
0.34915, 0.3129629, 0.2787687
0.3482705, 0.3134977, 0.2795192
0.3482705, 0.3134977, 0.2802226
0.3482705, 0.3134977, 0.280926
0.3473911, 0.3140324, 0.2816833
0.3473911, 0.3140324, 0.2823884
0.3473911, 0.3140324, 0.2830935
0.3465116, 0.3145672, 0.2838575
0.3465116, 0.3145672, 0.2845643
0.3465116, 0.3145672, 0.2852711
0.3465116, 0.3145672, 0.2859779
0.3456322, 0.315102, 0.2867503
0.3456322, 0.315102, 0.2874588
0.3456322, 0.315102, 0.2881673
0.3456322, 0.315102, 0.2888758
0.3456322, 0.315102, 0.2895843
0.3465116, 0.3145672, 0.2902188
0.3465116, 0.3145672, 0.2909256
0.3465116, 0.3145672, 0.2916324
0.3465116, 0.3145672, 0.2923392
0.3473911, 0.3140324, 0.2929652
0.3473911, 0.3140324, 0.2936704
0.3473911, 0.3140324, 0.2943755
0.3473911, 0.3140324, 0.2950806
0.3473911, 0.3140324, 0.2957857
0.3482705, 0.3134977, 0.2964016
0.3482705, 0.3134977, 0.2971051
0.3482705, 0.3134977, 0.2978085
0.3482705, 0.3134977, 0.298512
0.3482705, 0.3134977, 0.2992154
0.3482705, 0.3134977, 0.2999188
0.34915, 0.3129629, 0.3005229
0.4490392, 0.312443, 0.2573875
0.4528937, 0.3092264, 0.259708
0.4544355, 0.3079398, 0.2602751
0.4544355, 0.3079398, 0.2608453
0.4552064, 0.3072964, 0.2614089
0.4552064, 0.3072964, 0.2619774
0.4552064, 0.3072964, 0.2625459
0.4552064, 0.3072964, 0.2631144
0.4559773, 0.3066531, 0.2636696
0.4559773, 0.3066531, 0.2642364
0.4559773, 0.3066531, 0.2648031
0.4559773, 0.3066531, 0.26537
0.4559773, 0.3066531, 0.2659367
0.4559773, 0.3066531, 0.2665035
0.4559773, 0.3066531, 0.2670703
0.4552064, 0.3072964, 0.2676622
0.4552064, 0.3072964, 0.2682307
0.4552064, 0.3072964, 0.2687992
0.4552064, 0.3072964, 0.2693677
0.4544355, 0.3079398, 0.269968
0.4544355, 0.3079398, 0.2705382
0.4536646, 0.3085831, 0.2711436
0.4536646, 0.3085831, 0.2717155
0.4528937, 0.3092264, 0.2723259
0.3548182, 0.3087317, 0.2563613
0.3548182, 0.3087317, 0.2570513
0.3548182, 0.3087317, 0.2577412
0.3548182, 0.3087317, 0.2584311
0.3548182, 0.3087317, 0.2591211
0.3548182, 0.3087317, 0.259811
0.3548182, 0.3087317, 0.260501
0.3548182, 0.3087317, 0.2611909
0.3548182, 0.3087317, 0.2618808
0.3548182, 0.3087317, 0.2625708
0.3539376, 0.3092653, 0.2632706
0.3539376, 0.3092653, 0.2639623
0.3539376, 0.3092653, 0.2646539
0.3539376, 0.3092653, 0.2653455
0.3539376, 0.3092653, 0.2660372
0.3539376, 0.3092653, 0.2667288
0.3530569, 0.3097988, 0.2674405
0.3530569, 0.3097988, 0.2681338
0.3530569, 0.3097988, 0.2688271
0.3521763, 0.3103324, 0.2695455
0.3521763, 0.3103324, 0.2702405
0.3521763, 0.3103324, 0.2709355
0.3521763, 0.3103324, 0.2716305
0.3512957, 0.3108659, 0.2723574
0.3512957, 0.3108659, 0.2730541
0.3512957, 0.3108659, 0.2737508
0.350415, 0.3113995, 0.2744844
0.350415, 0.3113995, 0.2751828
0.3495344, 0.3119331, 0.2759214
0.3495344, 0.3119331, 0.2766215
0.3486538, 0.3124667, 0.2773652
0.3486538, 0.3124667, 0.278067
0.4319032, 0.3349049, 0.3170156
0.4319032, 0.3349049, 0.3176448
0.4319032, 0.3349049, 0.318274
0.4326621, 0.3342496, 0.3187432
0.4326621, 0.3342496, 0.3193707
0.4326621, 0.3342496, 0.3199982
0.4326621, 0.3342496, 0.3206257
0.4334211, 0.3335944, 0.3210865
0.4334211, 0.3335944, 0.3217123
0.4341801, 0.3329391, 0.3227921
0.4341801, 0.3329391, 0.3234162
0.3608501, 0.3105209, 0.2563821
0.3608501, 0.3105209, 0.257067
0.3599778, 0.3110628, 0.2577483
0.3599778, 0.3110628, 0.2584349
0.3599778, 0.3110628, 0.2591215
0.3599778, 0.3110628, 0.259808
0.3599778, 0.3110628, 0.2604946
0.3599778, 0.3110628, 0.2611812
0.3599778, 0.3110628, 0.2618677
0.3591056, 0.3116048, 0.2625625
0.3591056, 0.3116048, 0.2632508
0.3591056, 0.3116048, 0.2639391
0.3591056, 0.3116048, 0.2646273
0.3582333, 0.3121467, 0.2653306
0.3582333, 0.3121467, 0.2660205
0.3582333, 0.3121467, 0.2667104
0.357361, 0.3126886, 0.2674204
0.357361, 0.3126886, 0.2681121
0.357361, 0.3126886, 0.2688037
0.3564887, 0.3132305, 0.2695204
0.3564887, 0.3132305, 0.2702137
0.3564887, 0.3132305, 0.270907
0.3556164, 0.3137725, 0.2716305
0.3556164, 0.3137725, 0.2723255
0.3556164, 0.3137725, 0.2730205
0.3556164, 0.3137725, 0.2737155
0.3547441, 0.3143144, 0.2744475
0.3547441, 0.3143144, 0.2751442
0.3547441, 0.3143144, 0.2758408
0.3538718, 0.3148563, 0.2765795
0.3538718, 0.3148563, 0.2772779
0.3538718, 0.3148563, 0.2779762
0.3490106, 0.3170661, 0.3241456
0.3490106, 0.3170661, 0.3248525
0.3490106, 0.3170661, 0.3255593
0.3490106, 0.3170661, 0.3262661
0.3490106, 0.3170661, 0.3269729
0.3490106, 0.3170661, 0.3276797
0.3490106, 0.3170661, 0.3283865
0.3490106, 0.3170661, 0.3290933
0.3490106, 0.3170661, 0.3298001
0.346862, 0.3064322, 0.2563336
0.346862, 0.3064322, 0.2570302
0.346862, 0.3064322, 0.2577269
0.346862, 0.3064322, 0.2584236
0.346862, 0.3064322, 0.2591203
0.346862, 0.3064322, 0.259817
0.346862, 0.3064322, 0.2605137
0.3477533, 0.3059094, 0.2612055
0.3477533, 0.3059094, 0.2619005
0.3477533, 0.3059094, 0.2625955
0.3477533, 0.3059094, 0.2632905
0.3477533, 0.3059094, 0.2639855
0.3477533, 0.3059094, 0.2646805
0.346862, 0.3064322, 0.2653905
0.346862, 0.3064322, 0.2660872
0.346862, 0.3064322, 0.2667839
0.346862, 0.3064322, 0.2674806
0.346862, 0.3064322, 0.2681773
0.3459706, 0.3069551, 0.2688974
0.3459706, 0.3069551, 0.2695957
0.3459706, 0.3069551, 0.2702941
0.3450792, 0.3074779, 0.271021
0.3450792, 0.3074779, 0.271721
0.3441879, 0.3080007, 0.272453
0.3441879, 0.3080007, 0.2731547
0.3441879, 0.3080007, 0.2738565
0.3432965, 0.3085236, 0.2745951
0.3432965, 0.3085236, 0.2752986
0.3432965, 0.3085236, 0.276002
0.3424051, 0.3090464, 0.2767474
0.3424051, 0.3090464, 0.2774525
0.3424051, 0.3090464, 0.2781577
0.4252721, 0.3042322, 0.2567292
0.4252721, 0.3042322, 0.2573297
0.4252721, 0.3042322, 0.2579302
0.4057399, 0.3186412, 0.2642548
0.4057399, 0.3186412, 0.2648959
0.4065538, 0.3180408, 0.2655202
0.4065538, 0.3180408, 0.2661595
0.4065538, 0.3180408, 0.2667989
0.4065538, 0.3180408, 0.2674382
0.4065538, 0.3180408, 0.2680776
0.4065538, 0.3180408, 0.2687169
0.4065538, 0.3180408, 0.2693562
0.4057399, 0.3186412, 0.270024
0.4057399, 0.3186412, 0.270665
0.4057399, 0.3186412, 0.2713061
0.4049261, 0.3192415, 0.2719806
0.4049261, 0.3192415, 0.2726234
0.4032984, 0.3204423, 0.2733399
0.4016707, 0.321643, 0.2740632
0.400043, 0.3228438, 0.2747932
0.3967876, 0.3252453, 0.2762735
0.39516, 0.326446, 0.2770238
0.3967807, 0.3393804, 0.2997094
0.3959871, 0.340001, 0.3004885
0.3959871, 0.340001, 0.3011667
0.3959871, 0.340001, 0.3018448
0.3959871, 0.340001, 0.3025229
0.3967807, 0.3393804, 0.3030916
0.3967807, 0.3393804, 0.303768
0.3975742, 0.3387597, 0.3043317
0.3975742, 0.3387597, 0.3050064
0.3983678, 0.3381391, 0.305565
0.3983678, 0.3381391, 0.3062381
0.3991613, 0.3375185, 0.3067915
0.3999549, 0.3368978, 0.3073417
0.3999549, 0.3368978, 0.3080114
0.3999549, 0.3368978, 0.3086811
0.3999549, 0.3368978, 0.3093508
0.3999549, 0.3368978, 0.3100204
0.3999549, 0.3368978, 0.3106902
0.3999549, 0.3368978, 0.3113599
0.3999549, 0.3368978, 0.3120295
0.3991613, 0.3375185, 0.312834
0.3991613, 0.3375185, 0.3135054
0.3991613, 0.3375185, 0.3141768
0.3991613, 0.3375185, 0.3148482
0.3991613, 0.3375185, 0.3155195
0.3991613, 0.3375185, 0.3161909
0.3991613, 0.3375185, 0.3168623
0.3391194, 0.3085892, 0.2789569
0.3391194, 0.3085892, 0.2796654
0.3382244, 0.3091084, 0.2804243
0.3382244, 0.3091084, 0.2811345
0.3382244, 0.3091084, 0.2818446
0.3373295, 0.3096277, 0.2826103
0.3373295, 0.3096277, 0.2833222
0.3373295, 0.3096277, 0.284034
0.3373295, 0.3096277, 0.2847459
0.3373295, 0.3096277, 0.2854578
0.3373295, 0.3096277, 0.2861696
0.3364345, 0.3101469, 0.2869471
0.3364345, 0.3101469, 0.2876607
0.3364345, 0.3101469, 0.2883742
0.3364345, 0.3101469, 0.2890878
0.3364345, 0.3101469, 0.2898014
0.3373295, 0.3096277, 0.2904409
0.3373295, 0.3096277, 0.2911527
0.3373295, 0.3096277, 0.2918646
0.3373295, 0.3096277, 0.2925765
0.3373295, 0.3096277, 0.2932884
0.3373295, 0.3096277, 0.2940002
0.3373295, 0.3096277, 0.2947121
0.3382244, 0.3091084, 0.2953381
0.3382244, 0.3091084, 0.2960483
0.3382244, 0.3091084, 0.2967585
0.3382244, 0.3091084, 0.2974687
0.3382244, 0.3091084, 0.2981789
0.3382244, 0.3091084, 0.298889
0.3382244, 0.3091084, 0.2995992
0.3382244, 0.3091084, 0.3003094
0.3382244, 0.3091084, 0.3010196
0.4307659, 0.3309392, 0.2804069
0.4330643, 0.328995, 0.2827186
0.4338304, 0.3283468, 0.2832738
0.4384272, 0.3244584, 0.285925
0.4537498, 0.3114967, 0.2878958
0.4537498, 0.3114967, 0.288471
0.4537498, 0.3114967, 0.2890463
0.4537498, 0.3114967, 0.2896215
0.4545159, 0.3108486, 0.2901058
0.4545159, 0.3108486, 0.2906794
0.4545159, 0.3108486, 0.2912529
0.4545159, 0.3108486, 0.2918265
0.4545159, 0.3108486, 0.2924
0.4545159, 0.3108486, 0.2929735
0.3415137, 0.3095693, 0.2789098
0.3415137, 0.3095693, 0.2796167
0.3415137, 0.3095693, 0.2803234
0.3406223, 0.3100921, 0.2810824
0.3406223, 0.3100921, 0.2817909
0.3397309, 0.3106149, 0.2825548
0.3397309, 0.3106149, 0.283265
0.3397309, 0.3106149, 0.2839752
0.3397309, 0.3106149, 0.2846854
0.3388396, 0.3111378, 0.2854578
0.3388396, 0.3111378, 0.2861696
0.3388396, 0.3111378, 0.2868815
0.3388396, 0.3111378, 0.2875934
0.3388396, 0.3111378, 0.2883053
0.3388396, 0.3111378, 0.2890171
0.3397309, 0.3106149, 0.2896567
0.3397309, 0.3106149, 0.2903669
0.339731, 0.3106149, 0.291077
0.339731, 0.3106149, 0.2917872
0.339731, 0.3106149, 0.2924974
0.3406224, 0.3100921, 0.2931268
0.3406224, 0.3100921, 0.2938353
0.3406224, 0.3100921, 0.2945438
0.3406224, 0.3100921, 0.2952523
0.3406224, 0.3100921, 0.2959608
0.3406224, 0.3100921, 0.2966693
0.3406224, 0.3100921, 0.2973778
0.3406224, 0.3100921, 0.2980863
0.3406224, 0.3100921, 0.2987948
0.3415137, 0.3095693, 0.2994073
0.3415137, 0.3095693, 0.3001141
0.3415137, 0.3095693, 0.3008209
0.385301, 0.3279007, 0.3247378
0.385301, 0.3279007, 0.3254143
0.3861232, 0.3273087, 0.3259239
0.3869454, 0.3267167, 0.3264302
0.3869454, 0.3267167, 0.3271033
0.3869454, 0.3267167, 0.3277763
0.3877676, 0.3261247, 0.3282759
0.3877676, 0.3261247, 0.3289472
0.3885898, 0.3255326, 0.3294417
0.3885898, 0.3255326, 0.3301114
0.3885898, 0.3255326, 0.3307811
0.389412, 0.3249406, 0.3312688
0.389412, 0.3249406, 0.3319368
0.389412, 0.3249406, 0.3326048
0.389412, 0.3249406, 0.3332728
0.3902342, 0.3243486, 0.3337521
0.3902342, 0.3243486, 0.3344184
0.3902342, 0.3243486, 0.3350847
0.3902342, 0.3243486, 0.3357511
0.3902342, 0.3243486, 0.3364174
0.3902342, 0.3243486, 0.3370837
0.3902342, 0.3243486, 0.33775
0.3902342, 0.3243486, 0.3384164
0.3910564, 0.3237566, 0.3388805
0.3910564, 0.3237566, 0.3395451
0.3910564, 0.3237566, 0.3402098
0.3910564, 0.3237566, 0.3408744
0.3496462, 0.3134591, 0.3012247
0.3496462, 0.3134591, 0.3019264
0.3496462, 0.3134591, 0.3026282
0.3496462, 0.3134591, 0.3033299
0.3496462, 0.3134591, 0.3040317
0.3496462, 0.3134591, 0.3047334
0.3496462, 0.3134591, 0.3054352
0.3496462, 0.3134591, 0.3061369
0.3496462, 0.3134591, 0.3068387
0.3496462, 0.3134591, 0.3075404
0.3496462, 0.3134591, 0.3082422
0.3487679, 0.3139951, 0.3090635
0.3487679, 0.3139951, 0.3097669
0.3487679, 0.3139951, 0.3104704
0.3487679, 0.3139951, 0.3111738
0.3487679, 0.3139951, 0.3118773
0.3487679, 0.3139951, 0.3125807
0.3487679, 0.3139951, 0.3132841
0.3478897, 0.314531, 0.3141189
0.3478897, 0.314531, 0.314824
0.3478897, 0.314531, 0.3155292
0.3478897, 0.314531, 0.3162343
0.3470114, 0.315067, 0.3170776
0.3470114, 0.315067, 0.3177844
0.3470114, 0.315067, 0.3184912
0.3470114, 0.315067, 0.319198
0.3461332, 0.3156029, 0.3200497
0.3461332, 0.3156029, 0.3207582
0.3461332, 0.3156029, 0.3214667
0.3461332, 0.3156029, 0.3221752
0.3461332, 0.3156029, 0.3228837
0.3461332, 0.3156029, 0.3235922
0.3810967, 0.3123827, 0.2432134
0.380247, 0.3129473, 0.2438373
0.3793974, 0.3135118, 0.245131
0.3793974, 0.3135118, 0.2457973
0.3785478, 0.3140764, 0.2464314
0.3785478, 0.3140764, 0.2470994
0.3785478, 0.3140764, 0.2477674
0.3785478, 0.3140764, 0.2484354
0.3785478, 0.3140764, 0.2491034
0.3793974, 0.3135118, 0.2497952
0.3785478, 0.3140764, 0.2504394
0.3793974, 0.3135118, 0.2511279
0.3793974, 0.3135118, 0.2517942
0.3793974, 0.3135118, 0.2524605
0.3793974, 0.3135118, 0.2531269
0.3793974, 0.3135118, 0.2537932
0.3785478, 0.3140764, 0.2544475
0.3785478, 0.3140764, 0.2551155
0.3785478, 0.3140764, 0.2557835
0.2685084, 0.2917183, 0.2807444
0.2675335, 0.2921576, 0.2815657
0.2675335, 0.2921576, 0.28234
0.2665587, 0.292597, 0.2831664
0.2646089, 0.2934756, 0.2840499
0.2421868, 0.3035805, 0.2869233
0.2392622, 0.3048985, 0.287918
0.2382874, 0.3053378, 0.2888018
0.2373125, 0.3057772, 0.2896889
0.2363376, 0.3062165, 0.2905794
0.2363376, 0.3062165, 0.2914076
0.2353627, 0.3066559, 0.2923032
0.2343878, 0.3070952, 0.2932021
0.2343878, 0.3070952, 0.2940338
0.2343878, 0.3070952, 0.2948654
0.233413, 0.3075346, 0.2957711
0.233413, 0.3075346, 0.2966044
0.233413, 0.3075346, 0.2974377
0.3746279, 0.3313697, 0.3007196
0.3737997, 0.3319558, 0.3015156
0.3737997, 0.3319558, 0.3022106
0.3737997, 0.3319558, 0.3029056
0.3729715, 0.3325418, 0.3037084
0.3729715, 0.3325418, 0.3044051
0.3721434, 0.3331279, 0.3052129
0.3721434, 0.3331279, 0.3059113
0.3713152, 0.3337139, 0.3067242
0.3713152, 0.3337139, 0.3074242
0.3713152, 0.3337139, 0.3081243
0.3704871, 0.3343, 0.3089439
0.3704871, 0.3343, 0.3096457
0.3696589, 0.334886, 0.3104704
0.3696589, 0.334886, 0.3111738
0.3696589, 0.334886, 0.3118773
0.3688308, 0.3354721, 0.3127087
0.3688308, 0.3354721, 0.3134138
0.3688308, 0.3354721, 0.3141189
0.3688308, 0.3354721, 0.314824
0.3688308, 0.3354721, 0.3155292
0.3688308, 0.3354721, 0.3162343
0.3688308, 0.3354721, 0.3169394
0.3696589, 0.334886, 0.3175047
0.3704871, 0.3343, 0.3180667
0.3729715, 0.3325418, 0.3190355
0.3762842, 0.3301976, 0.3205258
0.3779405, 0.3290254, 0.3209125
0.3787686, 0.3284394, 0.3214458
0.3675027, 0.3214161, 0.3225956
0.3675027, 0.3214161, 0.3232856
0.3675027, 0.3214161, 0.3239755
0.3683523, 0.3208515, 0.3245054
0.3683523, 0.3208515, 0.3251936
0.3683523, 0.3208515, 0.3258819
0.3683523, 0.3208515, 0.3265702
0.3683523, 0.3208515, 0.3272584
0.3692019, 0.3202869, 0.3277782
0.3692019, 0.3202869, 0.3284647
0.3692019, 0.3202869, 0.3291513
0.3692019, 0.3202869, 0.3298379
0.3692019, 0.3202869, 0.3305244
0.3692019, 0.3202869, 0.331211
0.3692019, 0.3202869, 0.3318976
0.3700515, 0.3197223, 0.3324038
0.3700515, 0.3197223, 0.3330887
0.3700515, 0.3197223, 0.3337736
0.3700515, 0.3197223, 0.3344585
0.3700515, 0.3197223, 0.3351434
0.3487362, 0.3068923, 0.2341004
0.3487362, 0.3068923, 0.2347955
0.3487362, 0.3068923, 0.2354905
0.3487362, 0.3068923, 0.2361855
0.3487362, 0.3068923, 0.2368805
0.3487362, 0.3068923, 0.2375755
0.3487362, 0.3068923, 0.2382705
0.3487362, 0.3068923, 0.2389655
0.3487362, 0.3068923, 0.2424405
0.3487362, 0.3068923, 0.2431355
0.3478473, 0.3074175, 0.2437932
0.3478473, 0.3074175, 0.2444898
0.3469582, 0.3079427, 0.2451526
0.3469582, 0.3079427, 0.245851
0.3469582, 0.3079427, 0.2465494
0.3460693, 0.308468, 0.2472189
0.3460693, 0.308468, 0.2479189
0.3460693, 0.308468, 0.248619
0.3469582, 0.3079427, 0.2493429
0.3469582, 0.3079427, 0.2500412
0.3469582, 0.3079427, 0.2507396
0.3469582, 0.3079427, 0.251438
0.3469582, 0.3079427, 0.2521364
0.3478473, 0.3074175, 0.2528501
0.3478473, 0.3074175, 0.2535468
0.3478473, 0.3074175, 0.2542435
0.3478473, 0.3074175, 0.2549402
0.3478473, 0.3074175, 0.2556369
0.3529995, 0.3153982, 0.2787217
0.3529995, 0.3153982, 0.2794217
0.3521273, 0.3159401, 0.2801722
0.3521273, 0.3159401, 0.280874
0.3521273, 0.3159401, 0.2815757
0.3512549, 0.3164821, 0.2823329
0.3512549, 0.3164821, 0.2830364
0.3512549, 0.3164821, 0.2837398
0.3503827, 0.317024, 0.2845038
0.3503827, 0.317024, 0.2852089
0.3503827, 0.317024, 0.285914
0.3495104, 0.3175659, 0.2866848
0.3495104, 0.3175659, 0.2873915
0.3495104, 0.3175659, 0.2880984
0.3495104, 0.3175659, 0.2888052
0.3495104, 0.3175659, 0.289512
0.3495104, 0.3175659, 0.2902188
0.3495104, 0.3175659, 0.2909256
0.3495104, 0.3175659, 0.2916324
0.3503827, 0.317024, 0.2922601
0.3503827, 0.317024, 0.2929652
0.3503827, 0.317024, 0.2936704
0.3503827, 0.317024, 0.2943755
0.3503827, 0.317024, 0.2950806
0.3512549, 0.3164821, 0.2956982
0.3512549, 0.3164821, 0.2964016
0.3512549, 0.3164821, 0.2971051
0.3512549, 0.3164821, 0.2978085
0.3521273, 0.3159401, 0.2984177
0.3521273, 0.3159401, 0.2991194
0.3521273, 0.3159401, 0.2998212
0.3521273, 0.3159401, 0.3005229
0.366653, 0.3219807, 0.2784865
0.366653, 0.3219807, 0.2791781
0.3658034, 0.3225452, 0.2799201
0.3658034, 0.3225452, 0.2806135
0.3658034, 0.3225452, 0.2813068
0.3649538, 0.3231098, 0.2820556
0.3649538, 0.3231098, 0.2827505
0.3641042, 0.3236744, 0.2835044
0.3641042, 0.3236744, 0.2842011
0.3632545, 0.324239, 0.28496
0.3632545, 0.324239, 0.2856584
0.3624049, 0.3248036, 0.2864223
0.3624049, 0.3248036, 0.2871224
0.3624049, 0.3248036, 0.2878225
0.3615553, 0.3253682, 0.2885932
0.3615553, 0.3253682, 0.289295
0.3615553, 0.3253682, 0.2899967
0.3615553, 0.3253682, 0.2906984
0.3615553, 0.3253682, 0.2914002
0.3615553, 0.3253682, 0.2921019
0.3615553, 0.3253682, 0.2928037
0.3615553, 0.3253682, 0.2935054
0.3615553, 0.3253682, 0.2942072
0.3615553, 0.3253682, 0.2949089
0.3615553, 0.3253682, 0.2956107
0.3615553, 0.3253682, 0.2963125
0.3615553, 0.3253682, 0.2970142
0.3615553, 0.3253682, 0.2977159
0.3615553, 0.3253682, 0.2984177
0.3615553, 0.3253682, 0.2991194
0.3615553, 0.3253682, 0.2998212
0.3615553, 0.3253682, 0.3005229
0.2905833, 0.3109648, 0.2560351
0.2905833, 0.3109648, 0.2568043
0.2905833, 0.3109648, 0.2575736
0.2905833, 0.3109648, 0.2583428
0.2915141, 0.3104813, 0.2591122
0.2915141, 0.3104813, 0.2598797
0.2915141, 0.3104813, 0.2606473
0.2915141, 0.3104813, 0.2614148
0.2915141, 0.3104813, 0.2621824
0.2924448, 0.3099979, 0.2629417
0.2924448, 0.3099979, 0.2637075
0.2924448, 0.3099979, 0.2644733
0.2924448, 0.3099979, 0.2652392
0.2924448, 0.3099979, 0.2660051
0.2924448, 0.3099979, 0.2667709
0.2924448, 0.3099979, 0.2675368
0.2924448, 0.3099979, 0.2683026
0.2924448, 0.3099979, 0.2690685
0.2933756, 0.3095144, 0.2698109
0.2933756, 0.3095144, 0.270575
0.2933756, 0.3095144, 0.2713392
0.2933756, 0.3095144, 0.2721034
0.2933756, 0.3095144, 0.2728676
0.2933756, 0.3095144, 0.2736317
0.2933756, 0.3095144, 0.2743959
0.2933756, 0.3095144, 0.27516
0.2933756, 0.3095144, 0.2759242
0.2933756, 0.3095144, 0.2766884
0.2933756, 0.3095144, 0.2774525
0.2933756, 0.3095144, 0.2782167
0.2933756, 0.3095144, 0.2789809
0.2933756, 0.3095144, 0.279745
0.3454768, 0.3064613, 0.2563266
0.3454768, 0.3064613, 0.257025
0.3463694, 0.3059396, 0.2577269
0.3463694, 0.3059396, 0.2584236
0.3463694, 0.3059396, 0.2591203
0.3463694, 0.3059396, 0.259817
0.3463694, 0.3059396, 0.2605137
0.3463694, 0.3059396, 0.2612104
0.3463694, 0.3059396, 0.2619071
0.3463694, 0.3059396, 0.2626038
0.3463694, 0.3059396, 0.2633004
0.3463694, 0.3059396, 0.2639971
0.3463694, 0.3059396, 0.2646938
0.3463694, 0.3059396, 0.2653905
0.3463694, 0.3059396, 0.2660872
0.3463694, 0.3059396, 0.2667839
0.3454768, 0.3064613, 0.2675006
0.3454768, 0.3064613, 0.268199
0.3454768, 0.3064613, 0.2688974
0.3445842, 0.3069829, 0.2696209
0.3445842, 0.3069829, 0.2703209
0.3445842, 0.3069829, 0.271021
0.3436916, 0.3075045, 0.2717512
0.3436916, 0.3075045, 0.272453
0.3436916, 0.3075045, 0.2731547
0.3427991, 0.3080262, 0.2738917
0.3427991, 0.3080262, 0.2745951
0.3427991, 0.3080262, 0.2752986
0.3419065, 0.3085479, 0.2760423
0.3419065, 0.3085479, 0.2767474
0.3419065, 0.3085479, 0.2774525
0.3410139, 0.3090695, 0.278203
0.4188623, 0.3261066, 0.2838641
0.4188623, 0.3261066, 0.2844984
0.4188623, 0.3261066, 0.2851326
0.4188623, 0.3261066, 0.2857669
0.4196499, 0.32548, 0.2863289
0.4196499, 0.32548, 0.2869614
0.4204375, 0.3248534, 0.2875183
0.4204375, 0.3248534, 0.2881492
0.4204375, 0.3248534, 0.2887801
0.4204375, 0.3248534, 0.289411
0.4212251, 0.3242268, 0.2899594
0.4212251, 0.3242268, 0.2905886
0.4212251, 0.3242268, 0.2912179
0.4212251, 0.3242268, 0.2918471
0.3525045, 0.3149032, 0.2787217
0.351631, 0.3154439, 0.2794704
0.351631, 0.3154439, 0.2801722
0.351631, 0.3154439, 0.280874
0.3507575, 0.3159847, 0.2816295
0.3507575, 0.3159847, 0.2823329
0.3507575, 0.3159847, 0.2830364
0.3498841, 0.3165254, 0.2837986
0.3498841, 0.3165254, 0.2845038
0.3498841, 0.3165254, 0.2852089
0.3490106, 0.3170661, 0.2859779
0.3490106, 0.3170661, 0.2866848
0.3490106, 0.3170661, 0.2873915
0.3490106, 0.3170661, 0.2880984
0.3490106, 0.3170661, 0.2888052
0.3490106, 0.3170661, 0.289512
0.3490106, 0.3170661, 0.2902188
0.3490106, 0.3170661, 0.2909256
0.3490106, 0.3170661, 0.2916324
0.3498841, 0.3165254, 0.2922601
0.3498841, 0.3165254, 0.2929652
0.3498841, 0.3165254, 0.2936704
0.3498841, 0.3165254, 0.2943755
0.3498841, 0.3165254, 0.2950806
0.3507575, 0.3159847, 0.2956982
0.3507575, 0.3159847, 0.2964016
0.3507575, 0.3159847, 0.2971051
0.3507575, 0.3159847, 0.2978085
0.351631, 0.3154439, 0.2984177
0.351631, 0.3154439, 0.2991194
0.351631, 0.3154439, 0.2998212
0.351631, 0.3154439, 0.3005229
0.3998038, 0.3353324, 0.2798319
0.3990078, 0.3359507, 0.2805537
0.3998038, 0.3353324, 0.281168
0.4005997, 0.3347142, 0.2817788
0.4053754, 0.3310046, 0.2834044
0.4069673, 0.3297681, 0.2839328
0.4085592, 0.3285315, 0.2844545
0.4085592, 0.3285315, 0.2851039
0.4085592, 0.3285315, 0.2857534
0.4093552, 0.3279133, 0.2863322
0.4093552, 0.3279133, 0.2869799
0.4101511, 0.327295, 0.2875537
0.4101511, 0.327295, 0.2881998
0.4101511, 0.327295, 0.2888458
0.4101511, 0.327295, 0.2894919
0.4101511, 0.327295, 0.290138
0.4101511, 0.327295, 0.2907841
0.4093552, 0.3279133, 0.2915143
0.4093552, 0.3279133, 0.2921621
0.4093552, 0.3279133, 0.2928099
0.4085592, 0.3285315, 0.2935469
0.4069673, 0.3297681, 0.2943781
0.4053754, 0.3310046, 0.2952161
0.4029876, 0.3328594, 0.2961551
0.3990078, 0.3359507, 0.2979659
0.3974159, 0.3371872, 0.2988343
0.3492277, 0.3073837, 0.2313204
0.3492277, 0.3073837, 0.2320154
0.3492277, 0.3073837, 0.2327105
0.3492277, 0.3073837, 0.2334054
0.3487362, 0.3068923, 0.2313204
0.3487362, 0.3068923, 0.2320154
0.3487362, 0.3068923, 0.2327105
0.3487362, 0.3068923, 0.2334054
0.3472619, 0.305418, 0.2313204
0.3472619, 0.305418, 0.2320154
0.3472619, 0.305418, 0.2327105
0.3472619, 0.305418, 0.2334054
0.3615553, 0.3253682, 0.3012247
0.3615553, 0.3253682, 0.3019264
0.3615553, 0.3253682, 0.3026282
0.3615553, 0.3253682, 0.3033299
0.3615553, 0.3253682, 0.3040317
0.3615553, 0.3253682, 0.3047334
0.3615553, 0.3253682, 0.3054352
0.3615553, 0.3253682, 0.3061369
0.3615553, 0.3253682, 0.3068387
0.3615553, 0.3253682, 0.3075404
0.3615553, 0.3253682, 0.3082422
0.3624049, 0.3248036, 0.3088244
0.3624049, 0.3248036, 0.3095244
0.3624049, 0.3248036, 0.3102245
0.3624049, 0.3248036, 0.3109245
0.3624049, 0.3248036, 0.3116246
0.3632545, 0.324239, 0.3121966
0.3632545, 0.324239, 0.312895
0.3632545, 0.324239, 0.3135934
0.3632545, 0.324239, 0.3142918
0.3641042, 0.3236744, 0.3148554
0.3641042, 0.3236744, 0.3155521
0.3641042, 0.3236744, 0.3162488
0.3649538, 0.3231098, 0.3168056
0.3649538, 0.3231098, 0.3175006
0.3649538, 0.3231098, 0.3181956
0.3658034, 0.3225452, 0.3187458
0.3658034, 0.3225452, 0.3194391
0.3658034, 0.3225452, 0.3201324
0.366653, 0.3219807, 0.3206758
0.366653, 0.3219807, 0.3213674
0.366653, 0.3219807, 0.322059
0.3556007, 0.3194136, 0.3012247
0.3556007, 0.3194136, 0.3019264
0.3556007, 0.3194136, 0.3026282
0.3556007, 0.3194136, 0.3033299
0.3556007, 0.3194136, 0.3040317
0.3556007, 0.3194136, 0.3047334
0.3556007, 0.3194136, 0.3054352
0.3564647, 0.3188634, 0.3060241
0.3564647, 0.3188634, 0.3067242
0.3564647, 0.3188634, 0.3074242
0.3564647, 0.3188634, 0.3081243
0.3564647, 0.3188634, 0.3088244
0.3564647, 0.3188634, 0.3095244
0.3564647, 0.3188634, 0.3102245
0.3564647, 0.3188634, 0.3109245
0.3564647, 0.3188634, 0.3116246
0.3564647, 0.3188634, 0.3123246
0.3564647, 0.3188634, 0.3130247
0.3564647, 0.3188634, 0.3137248
0.3564647, 0.3188634, 0.3144248
0.3564647, 0.3188634, 0.3151249
0.3564647, 0.3188634, 0.315825
0.3564647, 0.3188634, 0.316525
0.3564647, 0.3188634, 0.3172251
0.3564647, 0.3188634, 0.3179252
0.3564647, 0.3188634, 0.3186252
0.3564647, 0.3188634, 0.3193253
0.3564647, 0.3188634, 0.3200254
0.3564647, 0.3188634, 0.3207254
0.3564647, 0.3188634, 0.3214255
0.3564647, 0.3188634, 0.3221255
0.3564647, 0.3188634, 0.3228256
0.3663512, 0.3117794, 0.256403
0.3663512, 0.3117794, 0.2570828
0.3654861, 0.3123285, 0.257759
0.3654861, 0.3123285, 0.2584406
0.3654861, 0.3123285, 0.259122
0.3654861, 0.3123285, 0.2598036
0.364621, 0.3128775, 0.2604882
0.364621, 0.3128775, 0.2611714
0.364621, 0.3128775, 0.2618546
0.3637558, 0.3134266, 0.2625461
0.3637558, 0.3134266, 0.2632309
0.3628907, 0.3139757, 0.2639274
0.3628907, 0.3139757, 0.264614
0.3628907, 0.3139757, 0.2653006
0.3620256, 0.3145248, 0.2660038
0.3620256, 0.3145248, 0.2666921
0.3620256, 0.3145248, 0.2673803
0.3611605, 0.3150738, 0.2680903
0.3611605, 0.3150738, 0.2687803
0.3611605, 0.3150738, 0.2694702
0.3602953, 0.315623, 0.2701869
0.3602953, 0.315623, 0.2708786
0.3602953, 0.315623, 0.2715702
0.3594302, 0.316172, 0.2722937
0.3594302, 0.316172, 0.272987
0.3594302, 0.316172, 0.2736803
0.358565, 0.3167211, 0.2744105
0.358565, 0.3167211, 0.2751055
0.358565, 0.3167211, 0.2758006
0.3576999, 0.3172702, 0.2765375
0.3576999, 0.3172702, 0.2772342
0.3576999, 0.3172702, 0.2779309
0.3785478, 0.3140764, 0.2564515
0.3785478, 0.3140764, 0.2571196
0.3776982, 0.314641, 0.257784
0.3776982, 0.314641, 0.2584537
0.3776982, 0.314641, 0.2591234
0.3776982, 0.314641, 0.2597931
0.3776982, 0.314641, 0.2604628
0.3768485, 0.3152056, 0.2611374
0.3768485, 0.3152056, 0.2618088
0.3768485, 0.3152056, 0.2624801
0.3759989, 0.3157702, 0.2631615
0.3759989, 0.3157702, 0.2638345
0.3759989, 0.3157702, 0.2645076
0.3751493, 0.3163348, 0.2651956
0.3751493, 0.3163348, 0.2658704
0.3742996, 0.3168994, 0.2665635
0.3742996, 0.3168994, 0.26724
0.3742996, 0.3168994, 0.2679164
0.37345, 0.3174639, 0.2686163
0.37345, 0.3174639, 0.2692944
0.3726004, 0.3180286, 0.2699994
0.3726004, 0.3180286, 0.2706792
0.3717508, 0.3185931, 0.2713892
0.3717508, 0.3185931, 0.2720707
0.3709011, 0.3191577, 0.2727857
0.3709011, 0.3191577, 0.2734689
0.3700515, 0.3197223, 0.274189
0.3700515, 0.3197223, 0.2748739
0.3692019, 0.3202869, 0.2755991
0.3683523, 0.3208515, 0.2763276
0.3683523, 0.3208515, 0.2770159
0.3675027, 0.3214161, 0.2777495
0.4459556, 0.3150162, 0.2556003
0.3633762, 0.3144612, 0.2426439
0.3642401, 0.3139109, 0.2433694
0.3642401, 0.3139109, 0.2440543
0.3642401, 0.3139109, 0.2447392
0.3642401, 0.3139109, 0.2454241
0.3642401, 0.3139109, 0.2461089
0.3642401, 0.3139109, 0.2467938
0.365104, 0.3133606, 0.2475076
0.365104, 0.3133606, 0.2481908
0.365104, 0.3133606, 0.248874
0.365104, 0.3133606, 0.2495572
0.365968, 0.3128104, 0.2502625
0.365968, 0.3128104, 0.250944
0.365968, 0.3128104, 0.2516255
0.3668319, 0.3122601, 0.252324
0.3668319, 0.3122601, 0.2530039
0.3668319, 0.3122601, 0.2536837
0.3668319, 0.3122601, 0.2543635
0.3668319, 0.3122601, 0.2550433
0.3668319, 0.3122601, 0.2557231
0.2933756, 0.3095144, 0.2805092
0.2933756, 0.3095144, 0.2812734
0.2933756, 0.3095144, 0.2820375
0.2924448, 0.3099979, 0.2828538
0.2924448, 0.3099979, 0.2836196
0.2924448, 0.3099979, 0.2843855
0.2924448, 0.3099979, 0.2851513
0.2915141, 0.3104813, 0.2859761
0.2915141, 0.3104813, 0.2867436
0.2905833, 0.3109648, 0.2875733
0.2905833, 0.3109648, 0.2883426
0.2896526, 0.3114483, 0.2891774
0.2896526, 0.3114483, 0.2899483
0.2887219, 0.3119318, 0.2907882
0.2887219, 0.3119318, 0.2915608
0.2877911, 0.3124152, 0.2924057
0.2877911, 0.3124152, 0.29318
0.2868604, 0.3128987, 0.29403
0.2868604, 0.3128987, 0.294806
0.2859297, 0.3133822, 0.295661
0.2859297, 0.3133822, 0.2964387
0.2849989, 0.3138657, 0.2972988
0.2849989, 0.3138657, 0.2980782
0.2849989, 0.3138657, 0.2988575
0.2849989, 0.3138657, 0.2996369
0.2849989, 0.3138657, 0.3004162
0.2849989, 0.3138657, 0.3011956
0.2849989, 0.3138657, 0.3019749
0.4261691, 0.3348277, 0.3176356
0.4261691, 0.3348277, 0.3182715
0.4269353, 0.3341796, 0.3187491
0.4269353, 0.3341796, 0.3193834
0.4269353, 0.3341796, 0.3200177
0.4269353, 0.3341796, 0.3206519
0.4269353, 0.3341796, 0.3212862
0.4269353, 0.3341796, 0.3219205
0.4269353, 0.3341796, 0.3225548
0.4269353, 0.3341796, 0.323189
0.3581925, 0.3177628, 0.2786276
0.3573286, 0.3183131, 0.279373
0.3573286, 0.3183131, 0.2800714
0.3573286, 0.3183131, 0.2807698
0.3564647, 0.3188634, 0.2815219
0.3564647, 0.3188634, 0.282222
0.3556007, 0.3194136, 0.2829792
0.3556007, 0.3194136, 0.2836809
0.3556007, 0.3194136, 0.2843827
0.3547368, 0.3199639, 0.2851467
0.3547368, 0.3199639, 0.2858501
0.3547368, 0.3199639, 0.2865536
0.3538728, 0.3205142, 0.2873242
0.3538728, 0.3205142, 0.2880294
0.3538728, 0.3205142, 0.2887345
0.3538728, 0.3205142, 0.2894396
0.3538728, 0.3205142, 0.2901447
0.3538728, 0.3205142, 0.2908499
0.3538728, 0.3205142, 0.291555
0.3538728, 0.3205142, 0.2922601
0.3538728, 0.3205142, 0.2929652
0.3538728, 0.3205142, 0.2936704
0.3547368, 0.3199639, 0.2942913
0.3547368, 0.3199639, 0.2949948
0.3547368, 0.3199639, 0.2956982
0.3547368, 0.3199639, 0.2964016
0.3556007, 0.3194136, 0.2970142
0.3556007, 0.3194136, 0.2977159
0.3556007, 0.3194136, 0.2984177
0.3556007, 0.3194136, 0.2991194
0.3556007, 0.3194136, 0.2998212
0.3556007, 0.3194136, 0.3005229
0.3582333, 0.3121467, 0.2425625
0.3582333, 0.3121467, 0.2432524
0.3582333, 0.3121467, 0.2439424
0.3582333, 0.3121467, 0.2446323
0.3582333, 0.3121467, 0.2453223
0.3582333, 0.3121467, 0.2460122
0.3582333, 0.3121467, 0.2467021
0.3582333, 0.3121467, 0.2473921
0.3582333, 0.3121467, 0.248082
0.3582333, 0.3121467, 0.248772
0.3582333, 0.3121467, 0.2494619
0.3591056, 0.3116048, 0.250174
0.3591056, 0.3116048, 0.2508622
0.3591056, 0.3116048, 0.2515505
0.3591056, 0.3116048, 0.2522388
0.3599778, 0.3110628, 0.2529424
0.3599778, 0.3110628, 0.2536289
0.3599778, 0.3110628, 0.2543155
0.3599778, 0.3110628, 0.2550021
0.3599778, 0.3110628, 0.2556886
0.435798, 0.3274861, 0.2831426
0.4373279, 0.3261875, 0.2836237
0.4380929, 0.3255382, 0.2841671
0.4380929, 0.3255382, 0.2847777
0.4541565, 0.3119034, 0.2878958
0.4541565, 0.3119034, 0.288471
0.4549215, 0.3112541, 0.2889587
0.4549215, 0.3112541, 0.2895323
0.4549215, 0.3112541, 0.2901058
0.4549215, 0.3112541, 0.2906794
0.4549215, 0.3112541, 0.2912529
0.4549215, 0.3112541, 0.2918265
0.4549215, 0.3112541, 0.2924
0.4556864, 0.3106049, 0.2928742
0.3497191, 0.3078752, 0.2563405
0.3506057, 0.3073476, 0.2570408
0.3506057, 0.3073476, 0.2577341
0.3506057, 0.3073476, 0.2584274
0.3506057, 0.3073476, 0.2591207
0.3506057, 0.3073476, 0.259814
0.3506057, 0.3073476, 0.2605073
0.3506057, 0.3073476, 0.2612006
0.3506057, 0.3073476, 0.261894
0.3506057, 0.3073476, 0.2625873
0.3506057, 0.3073476, 0.2632806
0.3506057, 0.3073476, 0.2639739
0.3506057, 0.3073476, 0.2646672
0.3506057, 0.3073476, 0.2653605
0.3506057, 0.3073476, 0.2660539
0.3497191, 0.3078752, 0.2667655
0.3497191, 0.3078752, 0.2674605
0.3497191, 0.3078752, 0.2681555
0.3497191, 0.3078752, 0.2688505
0.3497191, 0.3078752, 0.2695455
0.3488325, 0.3084028, 0.2702673
0.3488325, 0.3084028, 0.270964
0.3488325, 0.3084028, 0.2716607
0.3479459, 0.3089304, 0.2723893
0.3479459, 0.3089304, 0.2730876
0.3479459, 0.3089304, 0.273786
0.3470593, 0.309458, 0.2745213
0.3470593, 0.309458, 0.2752213
0.3461727, 0.3099856, 0.2759617
0.3461727, 0.3099856, 0.2766635
0.3452861, 0.3105132, 0.2774089
0.3452861, 0.3105132, 0.2781123
0.3668319, 0.3122601, 0.256403
0.3668319, 0.3122601, 0.2570828
0.3668319, 0.3122601, 0.2577626
0.3668319, 0.3122601, 0.2584424
0.3668319, 0.3122601, 0.2591223
0.365968, 0.3128104, 0.2598036
0.365968, 0.3128104, 0.2604851
0.365968, 0.3128104, 0.2611666
0.365104, 0.3133606, 0.2618546
0.365104, 0.3133606, 0.2625378
0.3642401, 0.3139109, 0.2632309
0.3642401, 0.3139109, 0.2639158
0.3633762, 0.3144612, 0.264614
0.3633762, 0.3144612, 0.2653006
0.3633762, 0.3144612, 0.2659871
0.3625122, 0.3150114, 0.2666921
0.3625122, 0.3150114, 0.2673803
0.3625122, 0.3150114, 0.2680686
0.3616483, 0.3155617, 0.2687803
0.3616483, 0.3155617, 0.2694702
0.3616483, 0.3155617, 0.2701601
0.3607844, 0.316112, 0.2708786
0.3607844, 0.316112, 0.2715702
0.3607844, 0.316112, 0.2722618
0.3599204, 0.3166623, 0.272987
0.3599204, 0.3166623, 0.2736803
0.3590565, 0.3172125, 0.2744105
0.3590565, 0.3172125, 0.2751055
0.3590565, 0.3172125, 0.2758006
0.3581925, 0.3177628, 0.2765375
0.3581925, 0.3177628, 0.2772342
0.3581925, 0.3177628, 0.2779309
0.3699948, 0.3125945, 0.2564169
0.3699948, 0.3125945, 0.2570933
0.3699948, 0.3125945, 0.2577697
0.3699948, 0.3125945, 0.2584462
0.3691344, 0.3131483, 0.2591224
0.3691344, 0.3131483, 0.2598006
0.3682741, 0.3137022, 0.2604819
0.3682741, 0.3137022, 0.2611617
0.3682741, 0.3137022, 0.2618415
0.3674137, 0.314256, 0.2625296
0.3674137, 0.314256, 0.2632111
0.3665533, 0.3148099, 0.2639042
0.3665533, 0.3148099, 0.2645874
0.3665533, 0.3148099, 0.2652706
0.365693, 0.3153638, 0.2659705
0.365693, 0.3153638, 0.2666554
0.3648326, 0.3159176, 0.2673603
0.3648326, 0.3159176, 0.2680469
0.3648326, 0.3159176, 0.2687334
0.3639722, 0.3164715, 0.2694451
0.3639722, 0.3164715, 0.2701333
0.3631119, 0.3170253, 0.2708501
0.3631119, 0.3170253, 0.27154
0.3622515, 0.3175792, 0.2722618
0.3622515, 0.3175792, 0.2729535
0.3613912, 0.318133, 0.2736803
0.3613912, 0.318133, 0.2743736
0.3613912, 0.318133, 0.2750669
0.3605308, 0.3186869, 0.2758006
0.3605308, 0.3186869, 0.2764955
0.3605308, 0.3186869, 0.2771905
0.3596704, 0.3192407, 0.2779309
0.3989102, 0.3301962, 0.34133
0.3989102, 0.3301962, 0.341993
0.3989102, 0.3301962, 0.3426559
0.3997145, 0.3295863, 0.3431048
0.4205445, 0.3263747, 0.2825333
0.4205445, 0.3263747, 0.2831659
0.4213297, 0.3257456, 0.2837329
0.4213297, 0.3257456, 0.2843638
0.4213297, 0.3257456, 0.2849947
0.4213297, 0.3257456, 0.2856256
0.4221149, 0.3251166, 0.2861842
0.4229001, 0.3244876, 0.2867393
0.4229001, 0.3244876, 0.2873669
0.4229001, 0.3244876, 0.2879944
0.4236853, 0.3238586, 0.2885428
0.4236853, 0.3238586, 0.2891687
0.4236853, 0.3238586, 0.2897945
0.4244706, 0.3232296, 0.2903362
0.4244706, 0.3232296, 0.2909603
0.4252558, 0.3226007, 0.291497
0.426041, 0.3219717, 0.2920302
0.426041, 0.3219717, 0.292651
0.4268262, 0.3213426, 0.2931792
0.4276114, 0.3207136, 0.293704
0.4283966, 0.3200846, 0.2942255
0.4283966, 0.3200846, 0.2948412
0.3461332, 0.3156029, 0.3243006
0.3461332, 0.3156029, 0.3250092
0.3461332, 0.3156029, 0.3257177
0.3461332, 0.3156029, 0.3264261
0.3461332, 0.3156029, 0.3271346
0.4461585, 0.3095623, 0.2568055
0.4469378, 0.3089273, 0.2573928
0.447717, 0.3082924, 0.2579766
0.4484963, 0.3076574, 0.2585571
0.4492755, 0.3070224, 0.2591342
0.4500548, 0.3063875, 0.259708
0.450834, 0.3057525, 0.2602783
0.4516133, 0.3051175, 0.2608453
0.4516133, 0.3051175, 0.2614155
0.4523925, 0.3044826, 0.2619774
0.4523925, 0.3044826, 0.2625459
0.4523925, 0.3044826, 0.2631144
0.4531718, 0.3038476, 0.2636696
0.4531718, 0.3038476, 0.2642364
0.4531718, 0.3038476, 0.2648031
0.4531718, 0.3038476, 0.26537
0.4531718, 0.3038476, 0.2659367
0.4531718, 0.3038476, 0.2665035
0.4531718, 0.3038476, 0.2670703
0.4523925, 0.3044826, 0.2676622
0.4523925, 0.3044826, 0.2682307
0.4523925, 0.3044826, 0.2687992
0.4523925, 0.3044826, 0.2693677
0.4516133, 0.3051175, 0.269968
0.4516133, 0.3051175, 0.2705382
0.4516133, 0.3051175, 0.2711084
0.4516133, 0.3051175, 0.2716786
0.4516133, 0.3051175, 0.2722487
0.3453841, 0.3049543, 0.2340395
0.3453841, 0.3049543, 0.2347362
0.346279, 0.3044351, 0.2354905
0.346279, 0.3044351, 0.2361855
0.3453841, 0.3049543, 0.2368263
0.3453841, 0.3049543, 0.237523
0.3453841, 0.3049543, 0.2389164
0.3453841, 0.3049543, 0.239613
0.3453841, 0.3049543, 0.2403097
0.3444891, 0.3054736, 0.2409624
0.3444891, 0.3054736, 0.2416607
0.3444891, 0.3054736, 0.2423591
0.3444891, 0.3054736, 0.2430575
0.3435942, 0.3059929, 0.2437186
0.3435942, 0.3059929, 0.2444186
0.3435942, 0.3059929, 0.2451187
0.3426992, 0.3065121, 0.2457865
0.3426992, 0.3065121, 0.2464882
0.3418043, 0.3070314, 0.2471611
0.3418043, 0.3070314, 0.2478646
0.3418043, 0.3070314, 0.248568
0.3418043, 0.3070314, 0.2492714
0.3426992, 0.3065121, 0.249997
0.3418043, 0.3070314, 0.2506783
0.3426992, 0.3065121, 0.2514005
0.3426992, 0.3065121, 0.2521023
0.3426992, 0.3065121, 0.252804
0.3426992, 0.3065121, 0.2535057
0.3426992, 0.3065121, 0.2542075
0.3435942, 0.3059929, 0.2549196
0.3435942, 0.3059929, 0.2556196
0.2868604, 0.3128987, 0.2513515
0.2877911, 0.3124152, 0.2521429
0.2877911, 0.3124152, 0.2529171
0.2896526, 0.3114483, 0.2552572
0.2705328, 0.2979853, 0.2808855
0.2695687, 0.2984354, 0.2817119
0.2695687, 0.2984354, 0.2824912
0.2686045, 0.2988855, 0.2833227
0.2666762, 0.2997856, 0.2842113
0.2637838, 0.3011358, 0.2851622
0.2608914, 0.3024861, 0.2861231
0.257999, 0.3038363, 0.2870942
0.2551066, 0.3051865, 0.2880754
0.25125, 0.3069869, 0.2891289
0.2483576, 0.3083371, 0.290132
0.2454652, 0.3096873, 0.2911453
0.2435369, 0.3105875, 0.2921014
0.2425728, 0.3110375, 0.2929952
0.2406445, 0.3119377, 0.2939631
0.2396804, 0.3123878, 0.2948654
0.2387162, 0.3128378, 0.2957711
0.2377521, 0.3132879, 0.2966801
0.236788, 0.313738, 0.2975925
0.236788, 0.313738, 0.2984293
0.2358238, 0.3141881, 0.2993467
0.2358238, 0.3141881, 0.3001851
0.2348597, 0.3146381, 0.3011076
0.2348597, 0.3146381, 0.3019477
0.3472619, 0.305418, 0.2341004
0.3472619, 0.305418, 0.2347955
0.3472619, 0.305418, 0.2354905
0.3463694, 0.3059396, 0.2389164
0.3463694, 0.3059396, 0.239613
0.3463694, 0.3059396, 0.2403097
0.3463694, 0.3059396, 0.2410064
0.3463694, 0.3059396, 0.2417031
0.3463694, 0.3059396, 0.2423998
0.3454768, 0.3064613, 0.2430575
0.3454768, 0.3064613, 0.2437559
0.3454768, 0.3064613, 0.2444542
0.3445842, 0.3069829, 0.2451187
0.3445842, 0.3069829, 0.2458187
0.3445842, 0.3069829, 0.2465188
0.3436916, 0.3075045, 0.24719
0.3436916, 0.3075045, 0.2478918
0.3436916, 0.3075045, 0.2485935
0.3436916, 0.3075045, 0.2492952
0.3436916, 0.3075045, 0.249997
0.3445842, 0.3069829, 0.2507192
0.3445842, 0.3069829, 0.2514192
0.3445842, 0.3069829, 0.2521193
0.3445842, 0.3069829, 0.2528194
0.3445842, 0.3069829, 0.2535194
0.3445842, 0.3069829, 0.2542195
0.3454768, 0.3064613, 0.2549299
0.3454768, 0.3064613, 0.2556282
0.4545159, 0.3108486, 0.2935471
0.455282, 0.3102005, 0.2940179
0.455282, 0.3102005, 0.2945898
0.455282, 0.3102005, 0.2951617
0.455282, 0.3102005, 0.2957335
0.455282, 0.3102005, 0.2963054
0.455282, 0.3102005, 0.2968772
0.455282, 0.3102005, 0.2974491
0.455282, 0.3102005, 0.2980209
0.4560482, 0.3095524, 0.2984766
0.4560482, 0.3095524, 0.2990468
0.4560482, 0.3095524, 0.2996169
0.4560482, 0.3095524, 0.3001871
0.4223385, 0.3380681, 0.3087447
0.4231046, 0.33742, 0.3092577
0.4231046, 0.33742, 0.3099004
0.4231046, 0.33742, 0.3105431
0.4231046, 0.33742, 0.3111858
0.4238707, 0.336772, 0.3116904
0.4238707, 0.336772, 0.3123314
0.4238707, 0.336772, 0.3129724
0.4246369, 0.3361239, 0.3134702
0.4246369, 0.3361239, 0.3141096
0.425403, 0.3354758, 0.3146024
0.425403, 0.3354758, 0.31524
0.4261691, 0.3348277, 0.3157277
0.4261691, 0.3348277, 0.3163637
0.4261691, 0.3348277, 0.3169996
0.3495104, 0.3175659, 0.3241456
0.3495104, 0.3175659, 0.3248525
0.3495104, 0.3175659, 0.3255593
0.3495104, 0.3175659, 0.3262661
0.3495104, 0.3175659, 0.3269729
0.3495104, 0.3175659, 0.3276797
0.3495104, 0.3175659, 0.3283865
0.3495104, 0.3175659, 0.3290933
0.3495104, 0.3175659, 0.3298001
0.3503827, 0.317024, 0.3303367
0.3492277, 0.3073837, 0.2341004
0.3492277, 0.3073837, 0.2347955
0.3492277, 0.3073837, 0.2354905
0.3492277, 0.3073837, 0.2361855
0.3492277, 0.3073837, 0.2368805
0.3492277, 0.3073837, 0.2375755
0.3492277, 0.3073837, 0.2382705
0.3492277, 0.3073837, 0.2389655
0.3492277, 0.3073837, 0.2424405
0.3492277, 0.3073837, 0.2431355
0.3483399, 0.3079101, 0.2437932
0.3483399, 0.3079101, 0.2444898
0.3483399, 0.3079101, 0.2451865
0.3474521, 0.3084366, 0.245851
0.3474521, 0.3084366, 0.2465494
0.3474521, 0.3084366, 0.2472477
0.3474521, 0.3084366, 0.2479461
0.3474521, 0.3084366, 0.2486445
0.3474521, 0.3084366, 0.2493429
0.3474521, 0.3084366, 0.2500412
0.3474521, 0.3084366, 0.2507396
0.3483399, 0.3079101, 0.2514567
0.3483399, 0.3079101, 0.2521534
0.3483399, 0.3079101, 0.2528501
0.3483399, 0.3079101, 0.2535468
0.3483399, 0.3079101, 0.2542435
0.3492277, 0.3073837, 0.2549505
0.3492277, 0.3073837, 0.2556455
0.4568143, 0.3089043, 0.2625459
0.4568143, 0.3089043, 0.2631144
0.4568143, 0.3089043, 0.2636828
0.4575804, 0.3082563, 0.2642364
0.4575804, 0.3082563, 0.2648031
0.4575804, 0.3082563, 0.26537
0.4575804, 0.3082563, 0.2659367
0.4568143, 0.3089043, 0.2665253
0.4568143, 0.3089043, 0.2670937
0.4568143, 0.3089043, 0.2676622
0.4568143, 0.3089043, 0.2682307
0.4560482, 0.3095524, 0.2688277
0.4560482, 0.3095524, 0.2693979
0.455282, 0.3102005, 0.2699999
0.455282, 0.3102005, 0.2705718
0.4393399, 0.3098147, 0.2544092
0.4393399, 0.3098147, 0.25559
0.4393399, 0.3098147, 0.2561804
0.4248475, 0.3038076, 0.2567292
0.4248475, 0.3038076, 0.2573297
0.4036566, 0.3193862, 0.2629927
0.4044716, 0.318787, 0.2636254
0.4044716, 0.318787, 0.2642682
0.4044716, 0.318787, 0.2649108
0.4044716, 0.318787, 0.2655536
0.4052866, 0.3181879, 0.2661779
0.4052866, 0.3181879, 0.2668189
0.4052866, 0.3181879, 0.26746
0.4052866, 0.3181879, 0.268101
0.4052866, 0.3181879, 0.268742
0.4052866, 0.3181879, 0.269383
0.4044716, 0.318787, 0.2700525
0.4044716, 0.318787, 0.2706952
0.4044716, 0.318787, 0.2713379
0.4036566, 0.3193862, 0.2720142
0.4036566, 0.3193862, 0.2726586
0.4020265, 0.3205846, 0.2733768
0.4003964, 0.3217829, 0.2741018
0.3987664, 0.3229813, 0.2748335
0.3963213, 0.3247789, 0.2762735
0.3946912, 0.3259772, 0.2770238
0.4306981, 0.335114, 0.3171706
0.4306981, 0.335114, 0.3178015
0.4314582, 0.33446, 0.318274
0.4314582, 0.33446, 0.3189032
0.4314582, 0.33446, 0.3195324
0.4314582, 0.33446, 0.3201616
0.4322184, 0.3338059, 0.3206257
0.4322184, 0.3338059, 0.3212533
0.4322184, 0.3338059, 0.3218808
0.4417453, 0.3093917, 0.2567847
0.4456713, 0.3062467, 0.2585552
0.448027, 0.3043597, 0.2602815
0.448027, 0.3043597, 0.260855
0.4488122, 0.3037307, 0.261422
0.4495974, 0.3031017, 0.2619856
0.4495974, 0.3031017, 0.2625558
0.4495974, 0.3031017, 0.263126
0.4495974, 0.3031017, 0.2636962
0.4495974, 0.3031017, 0.2642663
0.4495974, 0.3031017, 0.2648365
0.4503826, 0.3024727, 0.2653883
0.4495974, 0.3031017, 0.2659768
0.4495974, 0.3031017, 0.266547
0.4495974, 0.3031017, 0.2671172
0.4495974, 0.3031017, 0.2676874
0.4495974, 0.3031017, 0.2682575
0.4495974, 0.3031017, 0.2688277
0.4488122, 0.3037307, 0.269428
0.4488122, 0.3037307, 0.2699999
0.4488122, 0.3037307, 0.2705718
0.4488122, 0.3037307, 0.2711436
0.4488122, 0.3037307, 0.2717155
0.4488122, 0.3037307, 0.2722873
0.448027, 0.3043597, 0.2728995
0.448027, 0.3043597, 0.273473
0.3487362, 0.3068923, 0.2563405
0.3487362, 0.3068923, 0.2570355
0.3487362, 0.3068923, 0.2577305
0.3487362, 0.3068923, 0.2584255
0.3487362, 0.3068923, 0.2591205
0.3487362, 0.3068923, 0.2598155
0.3487362, 0.3068923, 0.2605105
0.3487362, 0.3068923, 0.2612055
0.3487362, 0.3068923, 0.2619005
0.3487362, 0.3068923, 0.2625955
0.3487362, 0.3068923, 0.2632905
0.3487362, 0.3068923, 0.2639855
0.3487362, 0.3068923, 0.2646805
0.3487362, 0.3068923, 0.2653755
0.3487362, 0.3068923, 0.2660705
0.3487362, 0.3068923, 0.2667655
0.3487362, 0.3068923, 0.2674605
0.3478473, 0.3074175, 0.2681773
0.3478473, 0.3074175, 0.268874
0.3478473, 0.3074175, 0.2695706
0.3478473, 0.3074175, 0.2702673
0.3469582, 0.3079427, 0.2709925
0.3469582, 0.3079427, 0.2716909
0.3460693, 0.308468, 0.2724211
0.3460693, 0.308468, 0.2731212
0.3460693, 0.308468, 0.2738212
0.3451803, 0.3089932, 0.2745582
0.3451803, 0.3089932, 0.27526
0.3451803, 0.3089932, 0.2759617
0.3442913, 0.3095184, 0.2767054
0.3442913, 0.3095184, 0.2774089
0.3442913, 0.3095184, 0.2781123
0.3615137, 0.3196698, 0.3230606
0.3615137, 0.3196698, 0.3237557
0.3615137, 0.3196698, 0.3244506
0.3615137, 0.3196698, 0.3251457
0.3615137, 0.3196698, 0.3258407
0.3615137, 0.3196698, 0.3265356
0.3615137, 0.3196698, 0.3272306
0.3615137, 0.3196698, 0.3279257
0.3615137, 0.3196698, 0.3286207
0.3615137, 0.3196698, 0.3293157
0.3615137, 0.3196698, 0.3300107
0.3623717, 0.3191135, 0.3305321
0.3623717, 0.3191135, 0.3312254
0.3623717, 0.3191135, 0.3319187
0.3623717, 0.3191135, 0.332612
0.3964666, 0.3404805, 0.2998104
0.3964666, 0.3404805, 0.3004885
