0.3839093, 0.351875, 0.2861284
0.3832522, 0.351875, 0.2861284
0.3825997, 0.3527154, 0.2867046
0.3819442, 0.3527154, 0.2867046
0.3812888, 0.3527154, 0.2867046
0.3806333, 0.3527154, 0.2867046
0.3799779, 0.3527154, 0.2867046
0.3793224, 0.3527154, 0.2867046
0.378667, 0.3527154, 0.2867046
0.3780279, 0.3535558, 0.2872808
0.3773741, 0.3535558, 0.2872808
0.3767203, 0.3535558, 0.2872808
0.3760665, 0.3535558, 0.2872808
0.3754128, 0.3535558, 0.2872808
0.374759, 0.3535558, 0.2872808
0.3741316, 0.3543961, 0.287857
0.3734795, 0.3543961, 0.287857
0.3728274, 0.3543961, 0.287857
0.3721753, 0.3543961, 0.287857
0.3715563, 0.3552365, 0.2884332
0.3709059, 0.3552365, 0.2884332
0.3702555, 0.3552365, 0.2884332
0.3696051, 0.3552365, 0.2884332
0.3689546, 0.3552365, 0.2884332
0.3683042, 0.3552365, 0.2884332
0.3676538, 0.3552365, 0.2884332
0.3670034, 0.3552365, 0.2884332
0.3663529, 0.3552365, 0.2884332
0.3657025, 0.3552365, 0.2884332
0.3650521, 0.3552365, 0.2884332
0.2552183, 0.3529006, 0.2682962
0.254541, 0.3529006, 0.2682962
0.2538638, 0.3529006, 0.2682962
0.2531865, 0.3529006, 0.2682962
0.2525093, 0.3529006, 0.2682962
0.2521602, 0.3537134, 0.2688994
0.2514846, 0.3537134, 0.2688994
0.2511405, 0.3545263, 0.2695026
0.2507998, 0.3553392, 0.2701058
0.2504625, 0.3561521, 0.2707091
0.2501284, 0.3569649, 0.2713123
0.2494705, 0.3585907, 0.2725188
0.2494881, 0.3602164, 0.2737252
0.2488259, 0.3602164, 0.2737252
0.2485086, 0.3610293, 0.2743285
0.2481948, 0.3618422, 0.2749317
0.2475359, 0.3618422, 0.2749317
0.2468771, 0.3618422, 0.2749317
0.2462183, 0.3618422, 0.2749317
0.2455595, 0.3618422, 0.2749317
0.2449007, 0.3618422, 0.2749317
0.2442419, 0.3618422, 0.2749317
0.2435831, 0.3618422, 0.2749317
0.2429243, 0.3618422, 0.2749317
0.2426272, 0.362655, 0.2755349
0.2596948, 0.3521568, 0.2886555
0.2590411, 0.3521568, 0.2886555
0.2583873, 0.3521568, 0.2886555
0.2577335, 0.3521568, 0.2886555
0.2574062, 0.3530008, 0.2892282
0.2567541, 0.3530008, 0.2892282
0.256102, 0.3530008, 0.2892282
0.2554499, 0.3530008, 0.2892282
0.2547978, 0.3530008, 0.2892282
0.2541457, 0.3530008, 0.2892282
0.2534936, 0.3530008, 0.2892282
0.2528415, 0.3530008, 0.2892282
0.2521895, 0.3530008, 0.2892282
0.2518789, 0.3538448, 0.2898009
0.2512285, 0.3538448, 0.2898009
0.250578, 0.3538448, 0.2898009
0.2502742, 0.3546887, 0.2903735
0.2499737, 0.3555327, 0.2909462
0.2493267, 0.3555327, 0.2909462
0.2486796, 0.3555327, 0.2909462
0.2483858, 0.3563766, 0.2915189
0.2477404, 0.3563766, 0.2915189
0.2474517, 0.3572206, 0.2920916
0.2468079, 0.3572206, 0.2920916
0.2461642, 0.3572206, 0.2920916
0.2455205, 0.3572206, 0.2920916
0.2448768, 0.3572206, 0.2920916
0.2445981, 0.3580645, 0.2926642
0.2439561, 0.3580645, 0.2926642
0.243314, 0.3580645, 0.2926642
0.242672, 0.3580645, 0.2926642
0.2420299, 0.3580645, 0.2926642
0.3637832, 0.3504129, 0.2763489
0.3631127, 0.3504129, 0.2763489
0.3624421, 0.3504129, 0.2763489
0.3617716, 0.3504129, 0.2763489
0.361101, 0.3504129, 0.2763489
0.3603706, 0.3495857, 0.2757598
0.3596984, 0.3495857, 0.2757598
0.3590262, 0.3495857, 0.2757598
0.3583539, 0.3495857, 0.2757598
0.3576151, 0.3487585, 0.2751707
0.3569412, 0.3487585, 0.2751707
0.3562673, 0.3487585, 0.2751707
0.3555218, 0.3479313, 0.2745816
0.3548462, 0.3479313, 0.2745816
0.3541707, 0.3479313, 0.2745816
0.3534951, 0.3479313, 0.2745816
0.3528195, 0.3479313, 0.2745816
0.3521439, 0.3479313, 0.2745816
0.3513867, 0.347104, 0.2739924
0.3507094, 0.347104, 0.2739924
0.3500322, 0.347104, 0.2739924
0.3493549, 0.347104, 0.2739924
0.3486777, 0.347104, 0.2739924
0.3479103, 0.3462768, 0.2734033
0.3472314, 0.3462768, 0.2734033
0.3465525, 0.3462768, 0.2734033
0.3458736, 0.3462768, 0.2734033
0.3451947, 0.3462768, 0.2734033
0.3444173, 0.3454496, 0.2728142
0.3437367, 0.3454496, 0.2728142
0.3430561, 0.3454496, 0.2728142
0.342272, 0.3446224, 0.272225
0.2031815, 0.3631283, 0.2961003
0.2025495, 0.3631283, 0.2961003
0.2019176, 0.3631283, 0.2961003
0.2012856, 0.3631283, 0.2961003
0.201141, 0.3639722, 0.296673
0.2005107, 0.3639722, 0.296673
0.1998804, 0.3639722, 0.296673
0.1992501, 0.3639722, 0.296673
0.1986198, 0.3639722, 0.296673
0.1979895, 0.3639722, 0.296673
0.1973591, 0.3639722, 0.296673
0.1967289, 0.3639722, 0.296673
0.1960986, 0.3639722, 0.296673
0.1954682, 0.3639722, 0.296673
0.1948379, 0.3639722, 0.296673
0.1947135, 0.3648162, 0.2972457
0.1940848, 0.3648162, 0.2972457
0.1934562, 0.3648162, 0.2972457
0.1928276, 0.3648162, 0.2972457
0.1921989, 0.3648162, 0.2972457
0.1920845, 0.3656602, 0.2978184
0.1914576, 0.3656602, 0.2978184
0.1908306, 0.3656602, 0.2978184
0.1902037, 0.3656602, 0.2978184
0.1895767, 0.3656602, 0.2978184
0.1889498, 0.3656602, 0.2978184
0.1883228, 0.3656602, 0.2978184
0.1876959, 0.3656602, 0.2978184
0.1870689, 0.3656602, 0.2978184
0.186442, 0.3656602, 0.2978184
0.186346, 0.3665041, 0.298391
0.1851881, 0.3656602, 0.2978184
0.2216967, 0.3597524, 0.2938096
0.2214868, 0.3605964, 0.2943823
0.2208498, 0.3605964, 0.2943823
0.2195757, 0.3605964, 0.2943823
0.2189387, 0.3605964, 0.2943823
0.2187388, 0.3614404, 0.294955
0.2181035, 0.3614404, 0.294955
0.2174682, 0.3614404, 0.294955
0.2168328, 0.3614404, 0.294955
0.2166413, 0.3622843, 0.2955276
0.2160076, 0.3622843, 0.2955276
0.215374, 0.3622843, 0.2955276
0.2147403, 0.3622843, 0.2955276
0.2141067, 0.3622843, 0.2955276
0.213473, 0.3622843, 0.2955276
0.2128394, 0.3622843, 0.2955276
0.2122057, 0.3622843, 0.2955276
0.211572, 0.3622843, 0.2955276
0.2109384, 0.3622843, 0.2955276
0.2103047, 0.3622843, 0.2955276
0.2096711, 0.3622843, 0.2955276
0.2090374, 0.3622843, 0.2955276
0.2084038, 0.3622843, 0.2955276
0.2077701, 0.3622843, 0.2955276
0.2071364, 0.3622843, 0.2955276
0.2069734, 0.3631283, 0.2961003
0.2063414, 0.3631283, 0.2961003
0.2057094, 0.3631283, 0.2961003
0.2050775, 0.3631283, 0.2961003
0.2044455, 0.3631283, 0.2961003
0.2038135, 0.3631283, 0.2961003
0.2955872, 0.3415204, 0.259851
0.2948865, 0.3415204, 0.259851
0.2941858, 0.3415204, 0.259851
0.293485, 0.3415204, 0.259851
0.2927843, 0.3415204, 0.259851
0.2923045, 0.3423333, 0.2604542
0.2916054, 0.3423333, 0.2604542
0.2909064, 0.3423333, 0.2604542
0.2902074, 0.3423333, 0.2604542
0.2897359, 0.3431461, 0.2610575
0.2890385, 0.3431461, 0.2610575
0.2883412, 0.3431461, 0.2610575
0.2876438, 0.3431461, 0.2610575
0.2871807, 0.343959, 0.2616607
0.286485, 0.343959, 0.2616607
0.2857893, 0.343959, 0.2616607
0.285333, 0.3447719, 0.2622639
0.2846389, 0.3447719, 0.2622639
0.283945, 0.3447719, 0.2622639
0.2834953, 0.3455848, 0.2628672
0.2828029, 0.3455848, 0.2628672
0.2821106, 0.3455848, 0.2628672
0.2816676, 0.3463976, 0.2634704
0.280977, 0.3463976, 0.2634704
0.2802863, 0.3463976, 0.2634704
0.2795957, 0.3463976, 0.2634704
0.2791611, 0.3472105, 0.2640736
0.2784721, 0.3472105, 0.2640736
0.2777831, 0.3472105, 0.2640736
0.2770941, 0.3472105, 0.2640736
0.2766679, 0.3480234, 0.2646768
0.2759806, 0.3480234, 0.2646768
0.2413879, 0.3580645, 0.2926642
0.2411209, 0.3589085, 0.2932369
0.2404806, 0.3589085, 0.2932369
0.2398402, 0.3589085, 0.2932369
0.2391998, 0.3589085, 0.2932369
0.2385595, 0.3589085, 0.2932369
0.2379191, 0.3589085, 0.2932369
0.2372788, 0.3589085, 0.2932369
0.2366384, 0.3589085, 0.2932369
0.235998, 0.3589085, 0.2932369
0.2353577, 0.3589085, 0.2932369
0.2347173, 0.3589085, 0.2932369
0.2340769, 0.3589085, 0.2932369
0.2334366, 0.3589085, 0.2932369
0.2327962, 0.3589085, 0.2932369
0.2321559, 0.3589085, 0.2932369
0.2315155, 0.3589085, 0.2932369
0.2308751, 0.3589085, 0.2932369
0.2302348, 0.3589085, 0.2932369
0.2295944, 0.3589085, 0.2932369
0.228954, 0.3589085, 0.2932369
0.2279051, 0.3580645, 0.2926642
0.2276733, 0.3589085, 0.2932369
0.2270329, 0.3589085, 0.2932369
0.2263926, 0.3589085, 0.2932369
0.2253369, 0.3580645, 0.2926642
0.2251119, 0.3589085, 0.2932369
0.2244715, 0.3589085, 0.2932369
0.2238311, 0.3589085, 0.2932369
0.2236128, 0.3597524, 0.2938096
0.2229741, 0.3597524, 0.2938096
0.2223354, 0.3597524, 0.2938096
0.4067533, 0.3443117, 0.2809426
0.4060811, 0.3443117, 0.2809426
0.4054089, 0.3443117, 0.2809426
0.4046859, 0.3451521, 0.2815188
0.4040154, 0.3451521, 0.2815188
0.4033449, 0.3451521, 0.2815188
0.4026286, 0.3459924, 0.282095
0.4019598, 0.3459924, 0.282095
0.4012909, 0.3459924, 0.282095
0.4006221, 0.3459924, 0.282095
0.3999532, 0.3459924, 0.282095
0.3992843, 0.3459924, 0.282095
0.3986155, 0.3459924, 0.282095
0.3979127, 0.3468328, 0.2826712
0.3972455, 0.3468328, 0.2826712
0.3965783, 0.3468328, 0.2826712
0.3958822, 0.3476731, 0.2832474
0.3952167, 0.3476731, 0.2832474
0.3945512, 0.3476731, 0.2832474
0.3938618, 0.3485135, 0.2838235
0.393198, 0.3485135, 0.2838235
0.3925136, 0.3493539, 0.2843998
0.3918514, 0.3493539, 0.2843998
0.3911893, 0.3493539, 0.2843998
0.3905271, 0.3493539, 0.2843998
0.389865, 0.3493539, 0.2843998
0.3891906, 0.3501943, 0.284976
0.3885302, 0.3501943, 0.284976
0.3878697, 0.3501943, 0.284976
0.3872092, 0.3501943, 0.284976
0.3865487, 0.3501943, 0.284976
0.3858845, 0.3510346, 0.2855522
0.2752933, 0.3480234, 0.2646768
0.274606, 0.3480234, 0.2646768
0.2739187, 0.3480234, 0.2646768
0.2735026, 0.3488362, 0.2652801
0.272817, 0.3488362, 0.2652801
0.2721313, 0.3488362, 0.2652801
0.2717219, 0.3496491, 0.2658833
0.2710379, 0.3496491, 0.2658833
0.270354, 0.3496491, 0.2658833
0.26967, 0.3496491, 0.2658833
0.2689861, 0.3496491, 0.2658833
0.2683021, 0.3496491, 0.2658833
0.2679044, 0.350462, 0.2664865
0.2672222, 0.350462, 0.2664865
0.2665399, 0.350462, 0.2664865
0.2658576, 0.350462, 0.2664865
0.2651753, 0.350462, 0.2664865
0.264493, 0.350462, 0.2664865
0.2638108, 0.350462, 0.2664865
0.2631285, 0.350462, 0.2664865
0.2624463, 0.350462, 0.2664865
0.2620653, 0.3512748, 0.2670897
0.2613847, 0.3512748, 0.2670897
0.2607041, 0.3512748, 0.2670897
0.2600235, 0.3512748, 0.2670897
0.2593429, 0.3512748, 0.2670897
0.258972, 0.3520877, 0.267693
0.2582931, 0.3520877, 0.267693
0.2576142, 0.3520877, 0.267693
0.2569352, 0.3520877, 0.267693
0.2562563, 0.3520877, 0.267693
0.2558955, 0.3529006, 0.2682962
0.4666667, 0.3171645, 0.2879916
0.4657744, 0.3180419, 0.2885314
0.4650804, 0.3180419, 0.2885314
0.4643864, 0.3180419, 0.2885314
0.4635009, 0.3189193, 0.2890712
0.4628086, 0.3189193, 0.2890712
0.4619281, 0.3197967, 0.289611
0.4612374, 0.3197967, 0.289611
0.4605468, 0.3197967, 0.289611
0.459673, 0.3206742, 0.2901508
0.458984, 0.3206742, 0.2901508
0.4581152, 0.3215516, 0.2906905
0.4574279, 0.3215516, 0.2906905
0.4567406, 0.3215516, 0.2906905
0.4558786, 0.3224291, 0.2912303
0.4551929, 0.3224291, 0.2912303
0.4545073, 0.3224291, 0.2912303
0.4536519, 0.3233065, 0.2917701
0.452968, 0.3233065, 0.2917701
0.452284, 0.3233065, 0.2917701
0.4514354, 0.3241839, 0.2923099
0.279285, 0.3285735, 0.3048207
0.2786229, 0.3285735, 0.3048207
0.2779607, 0.3285735, 0.3048207
0.2772986, 0.3285735, 0.3048207
0.2763636, 0.3276805, 0.3042961
0.2756998, 0.3276805, 0.3042961
0.2750359, 0.3276805, 0.3042961
0.2743721, 0.3276805, 0.3042961
0.2737083, 0.3276805, 0.3042961
0.2730444, 0.3276805, 0.3042961
0.2723806, 0.3276805, 0.3042961
0.2717168, 0.3276805, 0.3042961
0.271053, 0.3276805, 0.3042961
0.2703891, 0.3276805, 0.3042961
0.2697253, 0.3276805, 0.3042961
0.2690614, 0.3276805, 0.3042961
0.2686906, 0.3285735, 0.3048207
0.2680284, 0.3285735, 0.3048207
0.2673662, 0.3285735, 0.3048207
0.2667041, 0.3285735, 0.3048207
0.2660419, 0.3285735, 0.3048207
0.2653798, 0.3285735, 0.3048207
0.2647176, 0.3285735, 0.3048207
0.2640555, 0.3285735, 0.3048207
0.2633933, 0.3285735, 0.3048207
0.2627312, 0.3285735, 0.3048207
0.2623787, 0.3294664, 0.3053451
0.2614068, 0.3285735, 0.3048207
0.2610577, 0.3294664, 0.3053451
0.2603973, 0.3294664, 0.3053451
0.2597368, 0.3294664, 0.3053451
0.2590763, 0.3294664, 0.3053451
0.3644017, 0.3552365, 0.2884332
0.3637513, 0.3552365, 0.2884332
0.3631009, 0.3552365, 0.2884332
0.3623939, 0.3543961, 0.287857
0.3617418, 0.3543961, 0.287857
0.3610897, 0.3543961, 0.287857
0.3604376, 0.3543961, 0.287857
0.3597222, 0.3535558, 0.2872808
0.3590684, 0.3535558, 0.2872808
0.3584146, 0.3535558, 0.2872808
0.3577609, 0.3535558, 0.2872808
0.3570371, 0.3527154, 0.2867046
0.3563817, 0.3527154, 0.2867046
0.3557262, 0.3527154, 0.2867046
0.3550708, 0.3527154, 0.2867046
0.3544153, 0.3527154, 0.2867046
0.3536815, 0.351875, 0.2861284
0.3530244, 0.351875, 0.2861284
0.3523673, 0.351875, 0.2861284
0.3517101, 0.351875, 0.2861284
0.351053, 0.351875, 0.2861284
0.3503959, 0.351875, 0.2861284
0.3496503, 0.3510346, 0.2855522
0.3489915, 0.3510346, 0.2855522
0.3483327, 0.3510346, 0.2855522
0.3476739, 0.3510346, 0.2855522
0.34692, 0.3501943, 0.284976
0.3462595, 0.3501943, 0.284976
0.345599, 0.3501943, 0.284976
0.3448384, 0.3493539, 0.2843998
0.3441762, 0.3493539, 0.2843998
0.3435141, 0.3493539, 0.2843998
0.2346667, 0.3582159, 0.2672789
0.2343696, 0.3590216, 0.2678892
0.233699, 0.3590216, 0.2678892
0.2330285, 0.3590216, 0.2678892
0.232358, 0.3590216, 0.2678892
0.2316874, 0.3590216, 0.2678892
0.2310169, 0.3590216, 0.2678892
0.2303464, 0.3590216, 0.2678892
0.2296758, 0.3590216, 0.2678892
0.2290053, 0.3590216, 0.2678892
0.2283347, 0.3590216, 0.2678892
0.2276642, 0.3590216, 0.2678892
0.2273872, 0.3598273, 0.2684994
0.2267183, 0.3598273, 0.2684994
0.2260495, 0.3598273, 0.2684994
0.2253806, 0.3598273, 0.2684994
0.2247117, 0.3598273, 0.2684994
0.2240429, 0.3598273, 0.2684994
0.223374, 0.3598273, 0.2684994
0.2231104, 0.360633, 0.2691097
0.2224432, 0.360633, 0.2691097
0.221776, 0.360633, 0.2691097
0.2211088, 0.360633, 0.2691097
0.2208536, 0.3614387, 0.26972
0.2201881, 0.3614387, 0.26972
0.2195226, 0.3614387, 0.26972
0.2192741, 0.3622444, 0.2703303
0.2186103, 0.3622444, 0.2703303
0.2179464, 0.3622444, 0.2703303
0.2172826, 0.3622444, 0.2703303
0.2170424, 0.3630501, 0.2709406
0.2163803, 0.3630501, 0.2709406
0.2157181, 0.361161, 0.272797
0.2154847, 0.3619714, 0.2734026
0.2148242, 0.3619714, 0.2734026
0.2141638, 0.3619714, 0.2734026
0.2135033, 0.3619714, 0.2734026
0.2128428, 0.3619714, 0.2734026
0.2126194, 0.3627819, 0.2740082
0.2119606, 0.3627819, 0.2740082
0.2117423, 0.3635924, 0.2746137
0.2115273, 0.3644029, 0.2752193
0.2108718, 0.3644029, 0.2752193
0.2102164, 0.3644029, 0.2752193
0.2100081, 0.3652134, 0.2758249
0.2093543, 0.3652134, 0.2758249
0.2087005, 0.3652134, 0.2758249
0.2080467, 0.3652134, 0.2758249
0.207393, 0.3652134, 0.2758249
0.2071947, 0.3660238, 0.2764305
0.2065426, 0.3660238, 0.2764305
0.2058906, 0.3660238, 0.2764305
0.2052384, 0.3660238, 0.2764305
0.2050486, 0.3668343, 0.2770361
0.2043982, 0.3668343, 0.2770361
0.2037478, 0.3668343, 0.2770361
0.2035646, 0.3676448, 0.2776416
0.2029159, 0.3676448, 0.2776416
0.2022671, 0.3676448, 0.2776416
0.2016184, 0.3676448, 0.2776416
0.2014436, 0.3684553, 0.2782472
0.2007965, 0.3684553, 0.2782472
0.2001495, 0.3684553, 0.2782472
0.1995024, 0.3684553, 0.2782472
0.4507531, 0.3241839, 0.2923099
0.4499095, 0.3250614, 0.2928496
0.4492289, 0.3250614, 0.2928496
0.4485483, 0.3250614, 0.2928496
0.4478677, 0.3250614, 0.2928496
0.4470325, 0.3259388, 0.2933894
0.4463536, 0.3259388, 0.2933894
0.4456746, 0.3259388, 0.2933894
0.4448461, 0.3268162, 0.2939292
0.4441688, 0.3268162, 0.2939292
0.4434916, 0.3268162, 0.2939292
0.4428144, 0.3268162, 0.2939292
0.4421371, 0.3268162, 0.2939292
0.4413186, 0.3276936, 0.294469
0.4406431, 0.3276936, 0.294469
0.4399675, 0.3276936, 0.294469
0.439292, 0.3276936, 0.294469
0.4386164, 0.3276936, 0.294469
0.4379408, 0.3276936, 0.294469
0.4372652, 0.3276936, 0.294469
0.4365897, 0.3276936, 0.294469
0.4357863, 0.3285711, 0.2950088
0.4351124, 0.3285711, 0.2950088
0.4344385, 0.3285711, 0.2950088
0.4337646, 0.3285711, 0.2950088
0.4329696, 0.3294485, 0.2955485
0.4322974, 0.3294485, 0.2955485
0.4316252, 0.3294485, 0.2955485
0.4308369, 0.330326, 0.2960883
0.2800834, 0.3453133, 0.2925766
0.2794262, 0.3453133, 0.2925766
0.2790386, 0.3461704, 0.2931363
0.2783831, 0.3461704, 0.2931363
0.2777277, 0.3461704, 0.2931363
0.2770723, 0.3461704, 0.2931363
0.2764168, 0.3461704, 0.2931363
0.2757613, 0.3461704, 0.2931363
0.2751059, 0.3461704, 0.2931363
0.2744505, 0.3461704, 0.2931363
0.273795, 0.3461704, 0.2931363
0.2731395, 0.3461704, 0.2931363
0.2727703, 0.3470275, 0.2936961
0.2721165, 0.3470275, 0.2936961
0.2714628, 0.3470275, 0.2936961
0.270809, 0.3470275, 0.2936961
0.2701553, 0.3470275, 0.2936961
0.2697961, 0.3478846, 0.2942559
0.269144, 0.3478846, 0.2942559
0.2684919, 0.3478846, 0.2942559
0.2678398, 0.3478846, 0.2942559
0.2671877, 0.3478846, 0.2942559
0.2665356, 0.3478846, 0.2942559
0.2661881, 0.3487417, 0.2948156
0.2655377, 0.3487417, 0.2948156
0.2648873, 0.3487417, 0.2948156
0.2642369, 0.3487417, 0.2948156
0.2635865, 0.3487417, 0.2948156
0.2629361, 0.3487417, 0.2948156
0.2626004, 0.3495988, 0.2953753
0.2619516, 0.3495988, 0.2953753
0.2613029, 0.3495988, 0.2953753
0.3442193, 0.3447496, 0.3071508
0.343579, 0.3447496, 0.3071508
0.3429386, 0.3447496, 0.3071508
0.342188, 0.3438686, 0.3066146
0.341546, 0.3438686, 0.3066146
0.340904, 0.3438686, 0.3066146
0.3402619, 0.3438686, 0.3066146
0.3396199, 0.3438686, 0.3066146
0.3388593, 0.3429875, 0.3060783
0.3382155, 0.3429875, 0.3060783
0.3375718, 0.3429875, 0.3060783
0.3369281, 0.3429875, 0.3060783
0.3362844, 0.3429875, 0.3060783
0.3356407, 0.3429875, 0.3060783
0.3348683, 0.3421065, 0.3055421
0.3342229, 0.3421065, 0.3055421
0.3335775, 0.3421065, 0.3055421
0.3329321, 0.3421065, 0.3055421
0.3322867, 0.3421065, 0.3055421
0.3316413, 0.3421065, 0.3055421
0.3309959, 0.3421065, 0.3055421
0.3303505, 0.3421065, 0.3055421
0.3295631, 0.3412255, 0.3050058
0.328916, 0.3412255, 0.3050058
0.328269, 0.3412255, 0.3050058
0.3276219, 0.3412255, 0.3050058
0.3268261, 0.3403445, 0.3044696
0.3261773, 0.3403445, 0.3044696
0.3255286, 0.3403445, 0.3044696
0.324726, 0.3394634, 0.3039333
0.3240756, 0.3394634, 0.3039333
0.3234252, 0.3394634, 0.3039333
0.2603344, 0.3501334, 0.2934479
0.2600054, 0.350987, 0.2940112
0.2593566, 0.350987, 0.2940112
0.2587079, 0.350987, 0.2940112
0.2580591, 0.350987, 0.2940112
0.2574104, 0.350987, 0.2940112
0.2567617, 0.350987, 0.2940112
0.2561129, 0.350987, 0.2940112
0.2554642, 0.350987, 0.2940112
0.2548154, 0.350987, 0.2940112
0.2545032, 0.3518405, 0.2945745
0.2538561, 0.3518405, 0.2945745
0.2532091, 0.3518405, 0.2945745
0.252562, 0.3518405, 0.2945745
0.2522582, 0.352694, 0.2951378
0.2516128, 0.352694, 0.2951378
0.251314, 0.3535475, 0.2957011
0.2506703, 0.3535475, 0.2957011
0.2500265, 0.3535475, 0.2957011
0.2493828, 0.3535475, 0.2957011
0.2490924, 0.3544011, 0.2962644
0.2484503, 0.3544011, 0.2962644
0.2478083, 0.3544011, 0.2962644
0.2471662, 0.3544011, 0.2962644
0.2465242, 0.3544011, 0.2962644
0.2458822, 0.3544011, 0.2962644
0.2456035, 0.3552546, 0.2968276
0.2449631, 0.3552546, 0.2968276
0.2443227, 0.3552546, 0.2968276
0.2436824, 0.3552546, 0.2968276
0.243042, 0.3552546, 0.2968276
0.2424017, 0.3552546, 0.2968276
0.2548985, 0.3530562, 0.2667412
0.2542196, 0.3530562, 0.2667412
0.2535407, 0.3530562, 0.2667412
0.2528617, 0.3530562, 0.2667412
0.2525093, 0.3538667, 0.2673468
0.2518321, 0.3538667, 0.2673468
0.2514846, 0.3546771, 0.2679524
0.250809, 0.3546771, 0.2679524
0.2504666, 0.3554876, 0.268558
0.2501276, 0.3562981, 0.2691635
0.2501284, 0.357919, 0.2703747
0.2497978, 0.3587295, 0.2709803
0.2494705, 0.35954, 0.2715859
0.2494881, 0.361161, 0.272797
0.2488259, 0.361161, 0.272797
0.2485086, 0.3619714, 0.2734026
0.2478482, 0.3619714, 0.2734026
0.2471877, 0.3619714, 0.2734026
0.2468771, 0.3627819, 0.2740082
0.2462183, 0.3627819, 0.2740082
0.2455595, 0.3627819, 0.2740082
0.2449007, 0.3627819, 0.2740082
0.2442419, 0.3627819, 0.2740082
0.2435831, 0.3627819, 0.2740082
0.2429243, 0.3627819, 0.2740082
0.2422655, 0.3627819, 0.2740082
0.2416067, 0.3627819, 0.2740082
0.431327, 0.3207813, 0.2648089
0.4306078, 0.3207813, 0.2648089
0.4297826, 0.3216217, 0.2653851
0.4290651, 0.3216217, 0.2653851
0.4283477, 0.3216217, 0.2653851
0.4275292, 0.3224621, 0.2659613
0.4202868, 0.3434713, 0.2803664
0.4196129, 0.3434713, 0.2803664
0.4189391, 0.3434713, 0.2803664
0.4182652, 0.3434713, 0.2803664
0.4176738, 0.3426309, 0.2797902
0.4169983, 0.3426309, 0.2797902
0.4163227, 0.3426309, 0.2797902
0.4156471, 0.3426309, 0.2797902
0.4149716, 0.3426309, 0.2797902
0.414296, 0.3426309, 0.2797902
0.413693, 0.3417906, 0.279214
0.4130157, 0.3417906, 0.279214
0.4122693, 0.3426309, 0.2797902
0.4115937, 0.3426309, 0.2797902
0.4109182, 0.3426309, 0.2797902
0.4102426, 0.3426309, 0.2797902
0.4095671, 0.3426309, 0.2797902
0.4088307, 0.3434713, 0.2803664
0.4081568, 0.3434713, 0.2803664
0.4074829, 0.3434713, 0.2803664
0.4510792, 0.3268303, 0.2869053
0.4503936, 0.3268303, 0.2869053
0.4497079, 0.3268303, 0.2869053
0.4490223, 0.3268303, 0.2869053
0.4481804, 0.3276969, 0.2874556
0.4473418, 0.3285636, 0.2880059
0.4466595, 0.3285636, 0.2880059
0.4459772, 0.3285636, 0.2880059
0.4451453, 0.3294303, 0.2885563
0.4444647, 0.3294303, 0.2885563
0.4437841, 0.3294303, 0.2885563
0.442959, 0.3302969, 0.2891067
0.4422801, 0.3302969, 0.2891067
0.4416011, 0.3302969, 0.2891067
0.4407826, 0.3311636, 0.289657
0.4401054, 0.3311636, 0.289657
0.4394282, 0.3311636, 0.289657
0.4387509, 0.3311636, 0.289657
0.4379408, 0.3320303, 0.2902074
0.4372652, 0.3320303, 0.2902074
0.4365897, 0.3320303, 0.2902074
0.4359141, 0.3320303, 0.2902074
0.4352385, 0.3320303, 0.2902074
0.4344385, 0.332897, 0.2907577
0.4337646, 0.332897, 0.2907577
0.4330907, 0.332897, 0.2907577
0.4322974, 0.3337636, 0.2913081
0.4316252, 0.3337636, 0.2913081
0.430953, 0.3337636, 0.2913081
0.4302807, 0.3337636, 0.2913081
0.4294958, 0.3346303, 0.2918584
0.4288253, 0.3346303, 0.2918584
0.4281547, 0.3346303, 0.2918584
0.4274842, 0.3346303, 0.2918584
0.4267076, 0.335497, 0.2924088
0.4260388, 0.335497, 0.2924088
0.4253699, 0.335497, 0.2924088
0.424701, 0.335497, 0.2924088
0.4240322, 0.335497, 0.2924088
0.4233633, 0.335497, 0.2924088
0.4225985, 0.3363636, 0.2929592
0.4219313, 0.3363636, 0.2929592
0.4212641, 0.3363636, 0.2929592
0.4205969, 0.3363636, 0.2929592
0.4199297, 0.3363636, 0.2929592
0.419175, 0.3372304, 0.2935095
0.4185095, 0.3372304, 0.2935095
0.4177597, 0.338097, 0.2940599
0.4170133, 0.3389637, 0.2946102
0.4162703, 0.3398303, 0.2951606
0.4155306, 0.3406971, 0.2957109
0.4147942, 0.3415637, 0.2962613
0.4109554, 0.3484971, 0.3006641
0.4103117, 0.3484971, 0.3006641
0.4096021, 0.3493638, 0.3012145
0.408896, 0.3502305, 0.3017648
0.4082556, 0.3502305, 0.3017648
0.4075545, 0.3510971, 0.3023152
0.4069158, 0.3510971, 0.3023152
0.4062771, 0.3510971, 0.3023152
0.2790189, 0.3485135, 0.2838235
0.2783551, 0.3485135, 0.2838235
0.2776912, 0.3485135, 0.2838235
0.2770274, 0.3485135, 0.2838235
0.2763636, 0.3485135, 0.2838235
0.2756998, 0.3485135, 0.2838235
0.2750359, 0.3485135, 0.2838235
0.2743721, 0.3485135, 0.2838235
0.2739878, 0.3493539, 0.2843998
0.2733257, 0.3493539, 0.2843998
0.2726635, 0.3493539, 0.2843998
0.2720013, 0.3493539, 0.2843998
0.2713392, 0.3493539, 0.2843998
0.270677, 0.3493539, 0.2843998
0.2700149, 0.3493539, 0.2843998
0.269644, 0.3501943, 0.284976
0.2689835, 0.3501943, 0.284976
0.268323, 0.3501943, 0.284976
0.2676625, 0.3501943, 0.284976
0.267002, 0.3501943, 0.284976
0.2663416, 0.3501943, 0.284976
0.2659824, 0.3510346, 0.2855522
0.2653236, 0.3510346, 0.2855522
0.2646648, 0.3510346, 0.2855522
0.264006, 0.3510346, 0.2855522
0.2633472, 0.3510346, 0.2855522
0.2626884, 0.3510346, 0.2855522
0.2620296, 0.3510346, 0.2855522
0.2613708, 0.3510346, 0.2855522
0.2610267, 0.351875, 0.2861284
0.2603696, 0.351875, 0.2861284
0.2597125, 0.351875, 0.2861284
0.2273872, 0.357919, 0.2703747
0.2267183, 0.357919, 0.2703747
0.2264463, 0.3587295, 0.2709803
0.2257791, 0.3587295, 0.2709803
0.2251119, 0.3587295, 0.2709803
0.2244448, 0.3587295, 0.2709803
0.2241812, 0.35954, 0.2715859
0.2235157, 0.35954, 0.2715859
0.2228502, 0.35954, 0.2715859
0.2221846, 0.35954, 0.2715859
0.2219294, 0.3603505, 0.2721914
0.2212656, 0.3603505, 0.2721914
0.2206018, 0.3603505, 0.2721914
0.2199379, 0.3603505, 0.2721914
0.2192741, 0.3603505, 0.2721914
0.2190289, 0.361161, 0.272797
0.2183668, 0.361161, 0.272797
0.2177046, 0.361161, 0.272797
0.2170424, 0.361161, 0.272797
0.2163803, 0.361161, 0.272797
0.2561775, 0.3524624, 0.2729328
0.2555053, 0.3524624, 0.2729328
0.2548331, 0.3524624, 0.2729328
0.2541609, 0.3524624, 0.2729328
0.2534887, 0.3524624, 0.2729328
0.2531446, 0.3532825, 0.273529
0.2524741, 0.3532825, 0.273529
0.2518035, 0.3532825, 0.273529
0.2514662, 0.3541025, 0.2741252
0.2511321, 0.3549226, 0.2747214
0.2508015, 0.3557426, 0.2753175
0.2504742, 0.3565626, 0.2759137
0.2501502, 0.3573827, 0.2765099
0.2494881, 0.3573827, 0.2765099
0.2491691, 0.3582028, 0.277106
0.2488535, 0.3590228, 0.2777023
0.2485413, 0.3598428, 0.2782984
0.2482324, 0.3606629, 0.2788946
0.247577, 0.3606629, 0.2788946
0.2469216, 0.3606629, 0.2788946
0.2462661, 0.3606629, 0.2788946
0.2456107, 0.3606629, 0.2788946
0.2449552, 0.3606629, 0.2788946
0.2446581, 0.3614829, 0.2794908
0.2440043, 0.3614829, 0.2794908
0.2433505, 0.3614829, 0.2794908
0.2426967, 0.3614829, 0.2794908
0.2413892, 0.3614829, 0.2794908
0.2407354, 0.3614829, 0.2794908
0.2400817, 0.3614829, 0.2794908
0.2394279, 0.3614829, 0.2794908
0.3649171, 0.3536972, 0.3039662
0.3642834, 0.3536972, 0.3039662
0.3636498, 0.3536972, 0.3039662
0.3630161, 0.3536972, 0.3039662
0.3623825, 0.3536972, 0.3039662
0.3617488, 0.3536972, 0.3039662
0.3611152, 0.3536972, 0.3039662
0.3604182, 0.3528305, 0.3034159
0.3597829, 0.3528305, 0.3034159
0.3591476, 0.3528305, 0.3034159
0.3585122, 0.3528305, 0.3034159
0.3578069, 0.3519638, 0.3028655
0.3571699, 0.3519638, 0.3028655
0.3565329, 0.3519638, 0.3028655
0.3558959, 0.3519638, 0.3028655
0.3551822, 0.3510971, 0.3023152
0.3545435, 0.3510971, 0.3023152
0.3539048, 0.3510971, 0.3023152
0.3532661, 0.3510971, 0.3023152
0.3525441, 0.3502305, 0.3017648
0.3519037, 0.3502305, 0.3017648
0.3512633, 0.3502305, 0.3017648
0.3505346, 0.3493638, 0.3012145
0.3498925, 0.3493638, 0.3012145
0.3492505, 0.3493638, 0.3012145
0.3486084, 0.3493638, 0.3012145
0.3478713, 0.3484971, 0.3006641
0.3472275, 0.3484971, 0.3006641
0.3465838, 0.3484971, 0.3006641
0.3459401, 0.3484971, 0.3006641
0.3452964, 0.3484971, 0.3006641
0.3445492, 0.3476304, 0.3001137
0.2229779, 0.3586687, 0.2990807
0.2223442, 0.3586687, 0.2990807
0.2217105, 0.3586687, 0.2990807
0.2210769, 0.3586687, 0.2990807
0.2204432, 0.3586687, 0.2990807
0.2198096, 0.3586687, 0.2990807
0.2191759, 0.3586687, 0.2990807
0.2185423, 0.3586687, 0.2990807
0.2179086, 0.3586687, 0.2990807
0.2172749, 0.3586687, 0.2990807
0.2166413, 0.3586687, 0.2990807
0.2160076, 0.3586687, 0.2990807
0.215374, 0.3586687, 0.2990807
0.2147403, 0.3586687, 0.2990807
0.2141067, 0.3586687, 0.2990807
0.2139252, 0.3595222, 0.299644
0.2132932, 0.3595222, 0.299644
0.2126612, 0.3595222, 0.299644
0.2120292, 0.3595222, 0.299644
0.2113973, 0.3595222, 0.299644
0.2107653, 0.3595222, 0.299644
0.2101333, 0.3595222, 0.299644
0.2095013, 0.3595222, 0.299644
0.2088694, 0.3595222, 0.299644
0.2082374, 0.3595222, 0.299644
0.2076054, 0.3595222, 0.299644
0.2069734, 0.3595222, 0.299644
0.2068137, 0.3603757, 0.3002073
0.2061834, 0.3603757, 0.3002073
0.2055531, 0.3603757, 0.3002073
0.2049228, 0.3603757, 0.3002073
0.2047715, 0.3612292, 0.3007706
0.2994117, 0.3451521, 0.2815188
0.2987411, 0.3451521, 0.2815188
0.2980706, 0.3451521, 0.2815188
0.2974, 0.3451521, 0.2815188
0.2967295, 0.3451521, 0.2815188
0.296059, 0.3451521, 0.2815188
0.2953884, 0.3451521, 0.2815188
0.2947179, 0.3451521, 0.2815188
0.2940474, 0.3451521, 0.2815188
0.2933768, 0.3451521, 0.2815188
0.2927063, 0.3451521, 0.2815188
0.2920358, 0.3451521, 0.2815188
0.2915978, 0.3459924, 0.282095
0.2909289, 0.3459924, 0.282095
0.2902601, 0.3459924, 0.282095
0.2895912, 0.3459924, 0.282095
0.2889223, 0.3459924, 0.282095
0.2882535, 0.3459924, 0.282095
0.2875846, 0.3459924, 0.282095
0.2869158, 0.3459924, 0.282095
0.2862469, 0.3459924, 0.282095
0.285578, 0.3459924, 0.282095
0.2849092, 0.3459924, 0.282095
0.2844914, 0.3468328, 0.2826712
0.2838242, 0.3468328, 0.2826712
0.283157, 0.3468328, 0.2826712
0.2824898, 0.3468328, 0.2826712
0.2818226, 0.3468328, 0.2826712
0.2814148, 0.3476731, 0.2832474
0.2807493, 0.3476731, 0.2832474
0.2800838, 0.3476731, 0.2832474
0.2794183, 0.3476731, 0.2832474
0.1998167, 0.3677806, 0.2817143
0.199173, 0.3677806, 0.2817143
0.1985293, 0.3677806, 0.2817143
0.1978856, 0.3677806, 0.2817143
0.1972419, 0.3677806, 0.2817143
0.1970872, 0.368597, 0.282314
0.1964452, 0.368597, 0.282314
0.1958031, 0.368597, 0.282314
0.1951611, 0.368597, 0.282314
0.1945191, 0.368597, 0.282314
0.1943745, 0.3694135, 0.2829137
0.1937341, 0.3694135, 0.2829137
0.1930937, 0.3694135, 0.2829137
0.1924534, 0.3694135, 0.2829137
0.1923172, 0.37023, 0.2835134
0.1916785, 0.37023, 0.2835134
0.1910398, 0.37023, 0.2835134
0.1904011, 0.37023, 0.2835134
0.1897624, 0.37023, 0.2835134
0.1896363, 0.3710464, 0.2841131
0.1889993, 0.3710464, 0.2841131
0.1883623, 0.3710464, 0.2841131
0.1877252, 0.3710464, 0.2841131
0.1876075, 0.3718629, 0.2847128
0.1869721, 0.3718629, 0.2847128
0.1863368, 0.3718629, 0.2847128
0.1857015, 0.3718629, 0.2847128
0.1850661, 0.3718629, 0.2847128
0.3629585, 0.3441409, 0.2600799
0.3622079, 0.3433304, 0.2594743
0.3607533, 0.34252, 0.2588687
0.3599944, 0.3417095, 0.2582631
0.359232, 0.340899, 0.2576576
0.358528, 0.340899, 0.2576576
0.3578239, 0.340899, 0.2576576
0.3570549, 0.3400885, 0.257052
0.3563491, 0.3400885, 0.257052
0.3556434, 0.3400885, 0.257052
0.3549377, 0.3400885, 0.257052
0.3542319, 0.3400885, 0.257052
0.3535262, 0.3400885, 0.257052
0.3528205, 0.3400885, 0.257052
0.3521147, 0.3400885, 0.257052
0.351409, 0.3400885, 0.257052
0.3507032, 0.3400885, 0.257052
0.3499158, 0.339278, 0.2564464
0.3492084, 0.339278, 0.2564464
0.3485009, 0.339278, 0.2564464
0.3477935, 0.339278, 0.2564464
0.3469977, 0.3384676, 0.2558408
0.3462886, 0.3384676, 0.2558408
0.3455795, 0.3384676, 0.2558408
0.344777, 0.3376571, 0.2552353
0.3440662, 0.3376571, 0.2552353
0.3433554, 0.3376571, 0.2552353
0.3425462, 0.3368466, 0.2546297
0.3418337, 0.3368466, 0.2546297
0.3411213, 0.3368466, 0.2546297
0.3403053, 0.3360361, 0.2540241
0.2998366, 0.3449293, 0.2845417
0.2991694, 0.3449293, 0.2845417
0.2985022, 0.3449293, 0.2845417
0.297835, 0.3449293, 0.2845417
0.2971678, 0.3449293, 0.2845417
0.2965007, 0.3449293, 0.2845417
0.2958335, 0.3449293, 0.2845417
0.2951663, 0.3449293, 0.2845417
0.294725, 0.3457745, 0.2851132
0.2940595, 0.3457745, 0.2851132
0.293394, 0.3457745, 0.2851132
0.2927285, 0.3457745, 0.2851132
0.292063, 0.3457745, 0.2851132
0.2913975, 0.3457745, 0.2851132
0.290732, 0.3457745, 0.2851132
0.2900665, 0.3457745, 0.2851132
0.2894009, 0.3457745, 0.2851132
0.2887354, 0.3457745, 0.2851132
0.2880699, 0.3457745, 0.2851132
0.2874044, 0.3457745, 0.2851132
0.2867389, 0.3457745, 0.2851132
0.2860734, 0.3457745, 0.2851132
0.2856572, 0.3466196, 0.2856847
0.2849934, 0.3466196, 0.2856847
0.2843296, 0.3466196, 0.2856847
0.2836657, 0.3466196, 0.2856847
0.2830019, 0.3466196, 0.2856847
0.2823381, 0.3466196, 0.2856847
0.2816743, 0.3466196, 0.2856847
0.2810104, 0.3466196, 0.2856847
0.2806094, 0.3474648, 0.2862562
0.2799472, 0.3474648, 0.2862562
0.3395912, 0.3360361, 0.2540241
0.3388771, 0.3360361, 0.2540241
0.338163, 0.3360361, 0.2540241
0.3374488, 0.3360361, 0.2540241
0.3367347, 0.3360361, 0.2540241
0.3360206, 0.3360361, 0.2540241
0.3353065, 0.3360361, 0.2540241
0.3344754, 0.3352256, 0.2534185
0.3337596, 0.3352256, 0.2534185
0.3330438, 0.3352256, 0.2534185
0.3322061, 0.3344152, 0.252813
0.331365, 0.3336047, 0.2522074
0.3306458, 0.3336047, 0.2522074
0.3299267, 0.3336047, 0.2522074
0.3290789, 0.3327942, 0.2516018
0.3283581, 0.3327942, 0.2516018
0.3276372, 0.3327942, 0.2516018
0.3269164, 0.3327942, 0.2516018
0.3261956, 0.3327942, 0.2516018
0.3254747, 0.3327942, 0.2516018
0.3247539, 0.3327942, 0.2516018
0.3240331, 0.3327942, 0.2516018
0.3233123, 0.3327942, 0.2516018
0.3225914, 0.3327942, 0.2516018
0.3218706, 0.3327942, 0.2516018
0.3211498, 0.3327942, 0.2516018
0.320429, 0.3327942, 0.2516018
0.3197081, 0.3327942, 0.2516018
0.3189873, 0.3327942, 0.2516018
0.3184203, 0.3336047, 0.2522074
0.3177011, 0.3336047, 0.2522074
0.316982, 0.3336047, 0.2522074
0.4510792, 0.3263412, 0.2873858
0.4503936, 0.3263412, 0.2873858
0.4495482, 0.3272091, 0.287935
0.4488643, 0.3272091, 0.287935
0.4481804, 0.3272091, 0.287935
0.4473418, 0.328077, 0.2884842
0.4466595, 0.328077, 0.2884842
0.4458259, 0.3289448, 0.2890334
0.4451453, 0.3289448, 0.2890334
0.4444647, 0.3289448, 0.2890334
0.4436379, 0.3298127, 0.2895826
0.442959, 0.3298127, 0.2895826
0.4422801, 0.3298127, 0.2895826
0.4414599, 0.3306806, 0.2901317
0.4407826, 0.3306806, 0.2901317
0.4401054, 0.3306806, 0.2901317
0.4394282, 0.3306806, 0.2901317
0.4387509, 0.3306806, 0.2901317
0.4379408, 0.3315485, 0.2906809
0.4372652, 0.3315485, 0.2906809
0.4365897, 0.3315485, 0.2906809
0.4359141, 0.3315485, 0.2906809
0.4352385, 0.3315485, 0.2906809
0.4344385, 0.3324163, 0.2912301
0.4337646, 0.3324163, 0.2912301
0.4330907, 0.3324163, 0.2912301
0.4322974, 0.3332842, 0.2917792
0.4316252, 0.3332842, 0.2917792
0.430953, 0.3332842, 0.2917792
0.4302807, 0.3332842, 0.2917792
0.4294958, 0.3341521, 0.2923284
0.4288253, 0.3341521, 0.2923284
0.4376941, 0.3217686, 0.2568285
0.4369666, 0.3217686, 0.2568285
0.4362391, 0.3217686, 0.2568285
0.4355115, 0.3217686, 0.2568285
0.434784, 0.3217686, 0.2568285
0.4339421, 0.322597, 0.2574165
0.4332162, 0.322597, 0.2574165
0.4324903, 0.322597, 0.2574165
0.2803495, 0.3368204, 0.3023245
0.279694, 0.3368204, 0.3023245
0.2790386, 0.3368204, 0.3023245
0.2783831, 0.3368204, 0.3023245
0.2777277, 0.3368204, 0.3023245
0.2770723, 0.3368204, 0.3023245
0.2764168, 0.3368204, 0.3023245
0.2760392, 0.3377014, 0.3028608
0.2753854, 0.3377014, 0.3028608
0.2747316, 0.3377014, 0.3028608
0.2740779, 0.3377014, 0.3028608
0.2734241, 0.3377014, 0.3028608
0.2727703, 0.3377014, 0.3028608
0.2721165, 0.3377014, 0.3028608
0.2714628, 0.3377014, 0.3028608
0.270809, 0.3377014, 0.3028608
0.2701553, 0.3377014, 0.3028608
0.2695014, 0.3377014, 0.3028608
0.2688477, 0.3377014, 0.3028608
0.2681939, 0.3377014, 0.3028608
0.2675401, 0.3377014, 0.3028608
0.2668864, 0.3377014, 0.3028608
0.2665356, 0.3385824, 0.3033971
0.2658835, 0.3385824, 0.3033971
0.2652314, 0.3385824, 0.3033971
0.2645793, 0.3385824, 0.3033971
0.2639272, 0.3385824, 0.3033971
0.2632751, 0.3385824, 0.3033971
0.262623, 0.3385824, 0.3033971
0.2619709, 0.3385824, 0.3033971
0.2613188, 0.3385824, 0.3033971
0.2606667, 0.3385824, 0.3033971
0.2221238, 0.3601421, 0.2948288
0.2214868, 0.3601421, 0.2948288
0.2208498, 0.3601421, 0.2948288
0.2206448, 0.3609872, 0.2954003
0.2200095, 0.3609872, 0.2954003
0.2193742, 0.3609872, 0.2954003
0.2187388, 0.3609872, 0.2954003
0.2181035, 0.3609872, 0.2954003
0.2179086, 0.3618324, 0.2959718
0.2172749, 0.3618324, 0.2959718
0.2166413, 0.3618324, 0.2959718
0.2160076, 0.3618324, 0.2959718
0.215374, 0.3618324, 0.2959718
0.2147403, 0.3618324, 0.2959718
0.2141067, 0.3618324, 0.2959718
0.213473, 0.3618324, 0.2959718
0.2128394, 0.3618324, 0.2959718
0.2122057, 0.3618324, 0.2959718
0.211572, 0.3618324, 0.2959718
0.2109384, 0.3618324, 0.2959718
0.2103047, 0.3618324, 0.2959718
0.2096711, 0.3618324, 0.2959718
0.2090374, 0.3618324, 0.2959718
0.2084038, 0.3618324, 0.2959718
0.2082374, 0.3626775, 0.2965433
0.2076054, 0.3626775, 0.2965433
0.2069734, 0.3626775, 0.2965433
0.2063414, 0.3626775, 0.2965433
0.2057094, 0.3626775, 0.2965433
0.2050775, 0.3626775, 0.2965433
0.2044455, 0.3626775, 0.2965433
0.2038135, 0.3626775, 0.2965433
0.2036622, 0.3635226, 0.2971148
0.2030319, 0.3635226, 0.2971148
0.2024016, 0.3635226, 0.2971148
0.2017713, 0.3635226, 0.2971148
0.201141, 0.3635226, 0.2971148
0.2005107, 0.3635226, 0.2971148
0.1998804, 0.3635226, 0.2971148
0.1992501, 0.3635226, 0.2971148
0.1986198, 0.3635226, 0.2971148
0.1979895, 0.3635226, 0.2971148
0.1973591, 0.3635226, 0.2971148
0.1967289, 0.3635226, 0.2971148
0.1960986, 0.3635226, 0.2971148
0.1959707, 0.3643678, 0.2976863
0.1953421, 0.3643678, 0.2976863
0.1947135, 0.3643678, 0.2976863
0.1940848, 0.3643678, 0.2976863
0.1934562, 0.3643678, 0.2976863
0.1928276, 0.3643678, 0.2976863
0.1927115, 0.365213, 0.2982578
0.1920845, 0.365213, 0.2982578
0.1914576, 0.365213, 0.2982578
0.1908306, 0.365213, 0.2982578
0.1902037, 0.365213, 0.2982578
0.1895767, 0.365213, 0.2982578
0.1889498, 0.365213, 0.2982578
0.1883228, 0.365213, 0.2982578
0.1876959, 0.365213, 0.2982578
0.1870689, 0.365213, 0.2982578
0.186442, 0.365213, 0.2982578
0.186346, 0.3660581, 0.2988293
0.1851881, 0.365213, 0.2982578
0.32071, 0.3423938, 0.2828272
0.3200378, 0.3423938, 0.2828272
0.3193656, 0.3423938, 0.2828272
0.3186934, 0.3423938, 0.2828272
0.3180211, 0.3423938, 0.2828272
0.3173489, 0.3423938, 0.2828272
0.3166767, 0.3423938, 0.2828272
0.3160045, 0.3423938, 0.2828272
0.3153323, 0.3423938, 0.2828272
0.3146601, 0.3423938, 0.2828272
0.3139879, 0.3423938, 0.2828272
0.3133157, 0.3423938, 0.2828272
0.3126434, 0.3423938, 0.2828272
0.3119712, 0.3423938, 0.2828272
0.311299, 0.3423938, 0.2828272
0.3108108, 0.343239, 0.2833987
0.3101403, 0.343239, 0.2833987
0.3094697, 0.343239, 0.2833987
0.3087991, 0.343239, 0.2833987
0.3081286, 0.343239, 0.2833987
0.3074581, 0.343239, 0.2833987
0.3069816, 0.3440842, 0.2839702
0.3063127, 0.3440842, 0.2839702
0.3056439, 0.3440842, 0.2839702
0.304975, 0.3440842, 0.2839702
0.3043061, 0.3440842, 0.2839702
0.3036373, 0.3440842, 0.2839702
0.3029684, 0.3440842, 0.2839702
0.3025053, 0.3449293, 0.2845417
0.3018381, 0.3449293, 0.2845417
0.3011709, 0.3449293, 0.2845417
0.3005038, 0.3449293, 0.2845417
0.2417613, 0.3584518, 0.2936858
0.2411209, 0.3584518, 0.2936858
0.2404806, 0.3584518, 0.2936858
0.2398402, 0.3584518, 0.2936858
0.2391998, 0.3584518, 0.2936858
0.2385595, 0.3584518, 0.2936858
0.2379191, 0.3584518, 0.2936858
0.2372788, 0.3584518, 0.2936858
0.2366384, 0.3584518, 0.2936858
0.235998, 0.3584518, 0.2936858
0.2353577, 0.3584518, 0.2936858
0.2347173, 0.3584518, 0.2936858
0.2340769, 0.3584518, 0.2936858
0.2334366, 0.3584518, 0.2936858
0.2327962, 0.3584518, 0.2936858
0.2321559, 0.3584518, 0.2936858
0.2315155, 0.3584518, 0.2936858
0.2308751, 0.3584518, 0.2936858
0.2302348, 0.3584518, 0.2936858
0.2295944, 0.3584518, 0.2936858
0.228954, 0.3584518, 0.2936858
0.2283137, 0.3584518, 0.2936858
0.2276733, 0.3584518, 0.2936858
0.2270329, 0.3584518, 0.2936858
0.2263926, 0.3584518, 0.2936858
0.2257522, 0.3584518, 0.2936858
0.2251119, 0.3584518, 0.2936858
0.2248902, 0.3592969, 0.2942573
0.2242515, 0.3592969, 0.2942573
0.2236128, 0.3592969, 0.2942573
0.2233978, 0.3601421, 0.2948288
0.4509161, 0.3242821, 0.2908113
0.4500709, 0.3251572, 0.2913535
0.4493886, 0.3251572, 0.2913535
0.4485483, 0.3260322, 0.2918956
0.4478677, 0.3260322, 0.2918956
0.4471871, 0.3260322, 0.2918956
0.4463536, 0.3269073, 0.2924377
0.4456746, 0.3269073, 0.2924377
0.4449957, 0.3269073, 0.2924377
0.4441688, 0.3277823, 0.2929798
0.4434916, 0.3277823, 0.2929798
0.4428144, 0.3277823, 0.2929798
0.4421371, 0.3277823, 0.2929798
0.4414599, 0.3277823, 0.2929798
0.4407826, 0.3277823, 0.2929798
0.4401054, 0.3277823, 0.2929798
0.439292, 0.3286574, 0.2935219
0.4386164, 0.3286574, 0.2935219
0.4379408, 0.3286574, 0.2935219
0.4372652, 0.3286574, 0.2935219
0.4365897, 0.3286574, 0.2935219
0.4359141, 0.3286574, 0.2935219
0.4351124, 0.3295324, 0.2940641
0.4344385, 0.3295324, 0.2940641
0.4337646, 0.3295324, 0.2940641
0.4329696, 0.3304074, 0.2946062
0.4322974, 0.3304074, 0.2946062
0.4316252, 0.3304074, 0.2946062
0.4308369, 0.3312825, 0.2951483
0.4301663, 0.3312825, 0.2951483
0.4294958, 0.3312825, 0.2951483
0.4287142, 0.3321575, 0.2956905
0.199336, 0.3375033, 0.3100657
0.1986906, 0.3375033, 0.3100657
0.1980452, 0.3375033, 0.3100657
0.1973999, 0.3375033, 0.3100657
0.1967545, 0.3375033, 0.3100657
0.1961091, 0.3375033, 0.3100657
0.1959544, 0.3383963, 0.3105902
0.1953107, 0.3383963, 0.3105902
0.194667, 0.3383963, 0.3105902
0.1940233, 0.3383963, 0.3105902
0.1933796, 0.3383963, 0.3105902
0.1927359, 0.3383963, 0.3105902
0.1920921, 0.3383963, 0.3105902
0.1914484, 0.3383963, 0.3105902
0.1908047, 0.3383963, 0.3105902
0.190161, 0.3383963, 0.3105902
0.1895173, 0.3383963, 0.3105902
0.1888736, 0.3383963, 0.3105902
0.1882298, 0.3383963, 0.3105902
0.1875861, 0.3383963, 0.3105902
0.1869424, 0.3383963, 0.3105902
0.1862987, 0.3383963, 0.3105902
0.185655, 0.3383963, 0.3105902
0.1850113, 0.3383963, 0.3105902
0.1843676, 0.3383963, 0.3105902
0.1837238, 0.3383963, 0.3105902
0.1830801, 0.3383963, 0.3105902
0.1824364, 0.3383963, 0.3105902
0.1817927, 0.3383963, 0.3105902
0.181149, 0.3383963, 0.3105902
0.1805053, 0.3383963, 0.3105902
0.4652753, 0.3181568, 0.2870164
0.4643864, 0.3190319, 0.2875585
0.4636924, 0.3190319, 0.2875585
0.4628086, 0.3199069, 0.2881007
0.4621162, 0.3199069, 0.2881007
0.4612374, 0.3207819, 0.2886428
0.4605468, 0.3207819, 0.2886428
0.4598561, 0.3207819, 0.2886428
0.458984, 0.321657, 0.2891849
0.458295, 0.321657, 0.2891849
0.457606, 0.321657, 0.2891849
0.4567406, 0.3225321, 0.289727
0.4560533, 0.3225321, 0.289727
0.455366, 0.3225321, 0.289727
0.4545073, 0.3234071, 0.2902692
0.4538217, 0.3234071, 0.2902692
0.4531361, 0.3234071, 0.2902692
0.452284, 0.3242821, 0.2908113
0.4516001, 0.3242821, 0.2908113
0.2152911, 0.3646118, 0.2680039
0.2146273, 0.3646118, 0.2680039
0.2139634, 0.3646118, 0.2680039
0.2132996, 0.3646118, 0.2680039
0.2130695, 0.3654115, 0.26862
0.2124074, 0.3654115, 0.26862
0.2117452, 0.3654115, 0.26862
0.2115218, 0.3662112, 0.2692361
0.2108613, 0.3662112, 0.2692361
0.2102009, 0.3662112, 0.2692361
0.2095404, 0.3662112, 0.2692361
0.2088799, 0.3662112, 0.2692361
0.2082194, 0.3662112, 0.2692361
0.207559, 0.3662112, 0.2692361
0.207349, 0.367011, 0.2698523
0.2066902, 0.367011, 0.2698523
0.2060314, 0.367011, 0.2698523
0.2053726, 0.367011, 0.2698523
0.205171, 0.3678107, 0.2704685
0.2045139, 0.3678107, 0.2704685
0.2038568, 0.3678107, 0.2704685
0.2036619, 0.3686104, 0.2710846
0.2030064, 0.3686104, 0.2710846
0.202351, 0.3686104, 0.2710846
0.2016955, 0.3686104, 0.2710846
0.2010401, 0.3686104, 0.2710846
0.2003846, 0.3686104, 0.2710846
0.2002015, 0.3694101, 0.2717008
0.1995477, 0.3694101, 0.2717008
0.1988939, 0.3694101, 0.2717008
0.1982401, 0.3694101, 0.2717008
0.1975864, 0.3694101, 0.2717008
0.1969326, 0.3694101, 0.2717008
0.1967612, 0.3702098, 0.2723169
0.1961091, 0.3702098, 0.2723169
0.195457, 0.3702098, 0.2723169
0.1948049, 0.3702098, 0.2723169
0.1941528, 0.3702098, 0.2723169
0.1935007, 0.3702098, 0.2723169
0.193341, 0.3710095, 0.2729331
0.1926906, 0.3710095, 0.2729331
0.1920402, 0.3710095, 0.2729331
0.1913898, 0.3710095, 0.2729331
0.1912385, 0.3718092, 0.2735492
0.1905897, 0.3718092, 0.2735492
0.189941, 0.3718092, 0.2735492
0.1897964, 0.372609, 0.2741654
0.1891493, 0.372609, 0.2741654
0.1885023, 0.372609, 0.2741654
0.1883644, 0.3734087, 0.2747815
0.187719, 0.3734087, 0.2747815
0.1870736, 0.3734087, 0.2747815
0.1864282, 0.3734087, 0.2747815
0.1857828, 0.3734087, 0.2747815
0.185655, 0.3742084, 0.2753977
0.2798173, 0.3463357, 0.2901698
0.2791585, 0.3463357, 0.2901698
0.2784997, 0.3463357, 0.2901698
0.2778409, 0.3463357, 0.2901698
0.277182, 0.3463357, 0.2901698
0.2765233, 0.3463357, 0.2901698
0.2758645, 0.3463357, 0.2901698
0.2754835, 0.3471881, 0.2907342
0.2748263, 0.3471881, 0.2907342
0.2741692, 0.3471881, 0.2907342
0.2735121, 0.3471881, 0.2907342
0.272855, 0.3471881, 0.2907342
0.2721979, 0.3471881, 0.2907342
0.2718287, 0.3480404, 0.2912987
0.2711732, 0.3480404, 0.2912987
0.2705177, 0.3480404, 0.2912987
0.2698623, 0.3480404, 0.2912987
0.2695014, 0.3488927, 0.2918631
0.2688477, 0.3488927, 0.2918631
0.2681939, 0.3488927, 0.2918631
0.2675401, 0.3488927, 0.2918631
0.2668864, 0.3488927, 0.2918631
0.2665356, 0.349745, 0.2924276
0.2658835, 0.349745, 0.2924276
0.2652314, 0.349745, 0.2924276
0.2645793, 0.349745, 0.2924276
0.2639272, 0.349745, 0.2924276
0.2632751, 0.349745, 0.2924276
0.262623, 0.349745, 0.2924276
0.2622856, 0.3505974, 0.2929921
0.2616352, 0.3505974, 0.2929921
0.2609848, 0.3505974, 0.2929921
0.2728983, 0.3462183, 0.2538324
0.2721959, 0.3462183, 0.2538324
0.2714935, 0.3462183, 0.2538324
0.2710623, 0.347018, 0.2544485
0.2703616, 0.347018, 0.2544485
0.2693864, 0.3462183, 0.2538324
0.2689601, 0.347018, 0.2544485
0.2682594, 0.347018, 0.2544485
0.2675587, 0.347018, 0.2544485
0.266858, 0.347018, 0.2544485
0.2661573, 0.347018, 0.2544485
0.2654566, 0.347018, 0.2544485
0.2650421, 0.3478177, 0.2550647
0.2643431, 0.3478177, 0.2550647
0.2639336, 0.3486174, 0.2556808
0.2632363, 0.3486174, 0.2556808
0.2625389, 0.3486174, 0.2556808
0.2621362, 0.3494172, 0.256297
0.2614405, 0.3494172, 0.256297
0.2607448, 0.3494172, 0.256297
0.2603488, 0.3502169, 0.2569131
0.2596548, 0.3502169, 0.2569131
0.2589608, 0.3502169, 0.2569131
0.2585714, 0.3510166, 0.2575293
0.2578791, 0.3510166, 0.2575293
0.2571868, 0.3510166, 0.2575293
0.2564944, 0.3510166, 0.2575293
0.2561135, 0.3518163, 0.2581454
0.2554228, 0.3518163, 0.2581454
0.2547322, 0.3518163, 0.2581454
0.2543579, 0.352616, 0.2587616
0.2536689, 0.352616, 0.2587616
0.3437986, 0.3490714, 0.2972957
0.3431515, 0.3490714, 0.2972957
0.3425045, 0.3490714, 0.2972957
0.3418574, 0.3490714, 0.2972957
0.3410984, 0.3482107, 0.2967395
0.3404497, 0.3482107, 0.2967395
0.339801, 0.3482107, 0.2967395
0.3391522, 0.3482107, 0.2967395
0.3385035, 0.3482107, 0.2967395
0.3378547, 0.3482107, 0.2967395
0.337084, 0.34735, 0.2961833
0.3364336, 0.34735, 0.2961833
0.3357832, 0.34735, 0.2961833
0.3351327, 0.34735, 0.2961833
0.3343537, 0.3464893, 0.295627
0.3337016, 0.3464893, 0.295627
0.3330495, 0.3464893, 0.295627
0.3323974, 0.3464893, 0.295627
0.3316099, 0.3456286, 0.2950708
0.3309562, 0.3456286, 0.2950708
0.3303024, 0.3456286, 0.2950708
0.3296486, 0.3456286, 0.2950708
0.3288528, 0.3447679, 0.2945146
0.3281973, 0.3447679, 0.2945146
0.3275419, 0.3447679, 0.2945146
0.3268864, 0.3447679, 0.2945146
0.3260822, 0.3439072, 0.2939583
0.3254251, 0.3439072, 0.2939583
0.3247679, 0.3439072, 0.2939583
0.323957, 0.3430465, 0.2934021
0.3232982, 0.3430465, 0.2934021
0.3226394, 0.3430465, 0.2934021
0.25298, 0.352616, 0.2587616
0.2526124, 0.3534157, 0.2593777
0.2522482, 0.3542155, 0.2599939
0.2515626, 0.3542155, 0.2599939
0.2512034, 0.3550152, 0.26061
0.2505195, 0.3550152, 0.26061
0.2501653, 0.3558149, 0.2612262
0.2498146, 0.3566146, 0.2618423
0.2494671, 0.3574143, 0.2624585
0.2494579, 0.3590138, 0.2636908
0.2491189, 0.3598135, 0.264307
0.2487832, 0.3606132, 0.2649231
0.2484508, 0.3614129, 0.2655393
0.2481219, 0.3622126, 0.2661554
0.247453, 0.3622126, 0.2661554
0.247129, 0.3630123, 0.2667716
0.2464619, 0.3630123, 0.2667716
0.2457947, 0.3630123, 0.2667716
0.2451275, 0.3630123, 0.2667716
0.2444603, 0.3630123, 0.2667716
0.2437931, 0.3630123, 0.2667716
0.242771, 0.3622126, 0.2661554
0.2421021, 0.3622126, 0.2661554
0.2410749, 0.3614129, 0.2655393
0.2404044, 0.3614129, 0.2655393
0.2397339, 0.3614129, 0.2655393
0.2387, 0.3606132, 0.2649231
0.2380278, 0.3606132, 0.2649231
0.2373556, 0.3606132, 0.2649231
0.2366833, 0.3606132, 0.2649231
0.2360111, 0.3606132, 0.2649231
0.2353389, 0.3606132, 0.2649231
0.2157181, 0.3630501, 0.2709406
0.215056, 0.3630501, 0.2709406
0.2143938, 0.3630501, 0.2709406
0.2137317, 0.3630501, 0.2709406
0.2135033, 0.3638558, 0.2715508
0.2128428, 0.3638558, 0.2715508
0.2121823, 0.3638558, 0.2715508
0.2119606, 0.3646615, 0.2721611
0.2113018, 0.3646615, 0.2721611
0.210643, 0.3646615, 0.2721611
0.210428, 0.3654672, 0.2727714
0.2097709, 0.3654672, 0.2727714
0.2091138, 0.3654672, 0.2727714
0.2084566, 0.3654672, 0.2727714
0.20825, 0.3662729, 0.2733817
0.2075946, 0.3662729, 0.2733817
0.2069391, 0.3662729, 0.2733817
0.2062837, 0.3662729, 0.2733817
0.2060854, 0.3670786, 0.2739919
0.2054317, 0.3670786, 0.2739919
0.2047779, 0.3670786, 0.2739919
0.2045863, 0.3678842, 0.2746022
0.2039343, 0.3678842, 0.2746022
0.2032822, 0.3678842, 0.2746022
0.2026301, 0.3678842, 0.2746022
0.201978, 0.3678842, 0.2746022
0.2017965, 0.36869, 0.2752125
0.2011461, 0.36869, 0.2752125
0.2004957, 0.36869, 0.2752125
0.1998452, 0.36869, 0.2752125
0.1991948, 0.36869, 0.2752125
0.1985444, 0.36869, 0.2752125
0.2395209, 0.3348243, 0.3084922
0.2388705, 0.3348243, 0.3084922
0.2382201, 0.3348243, 0.3084922
0.2375696, 0.3348243, 0.3084922
0.2369192, 0.3348243, 0.3084922
0.2362688, 0.3348243, 0.3084922
0.2356184, 0.3348243, 0.3084922
0.234968, 0.3348243, 0.3084922
0.2343175, 0.3348243, 0.3084922
0.2336671, 0.3348243, 0.3084922
0.2334069, 0.3357173, 0.3090167
0.2327581, 0.3357173, 0.3090167
0.2321094, 0.3357173, 0.3090167
0.2314606, 0.3357173, 0.3090167
0.2308119, 0.3357173, 0.3090167
0.2301631, 0.3357173, 0.3090167
0.2295144, 0.3357173, 0.3090167
0.2288657, 0.3357173, 0.3090167
0.2282169, 0.3357173, 0.3090167
0.2273263, 0.3366103, 0.3095412
