0.3760448, 0.3200112, 0.2766376
0.376884, 0.3205862, 0.2773809
0.3777232, 0.3211613, 0.2781275
0.3785624, 0.3217363, 0.2788775
0.3802408, 0.3228864, 0.279696
0.3810799, 0.3234614, 0.2804542
0.3819191, 0.3240364, 0.2812158
0.3827583, 0.3246114, 0.2819806
0.3827583, 0.3246114, 0.2826769
0.3835975, 0.3251865, 0.2834468
0.3844367, 0.3257615, 0.28422
0.3844367, 0.3257615, 0.2849196
0.3852759, 0.3263365, 0.2856977
0.3852759, 0.3263365, 0.286399
0.3861151, 0.3269115, 0.2871822
0.3869542, 0.3274866, 0.2879686
0.3869542, 0.3274866, 0.2886732
0.3877935, 0.3280616, 0.2894646
0.3886326, 0.3286366, 0.2902593
0.390311, 0.3297867, 0.2911474
0.3911502, 0.3303617, 0.2919504
0.3919894, 0.3309368, 0.2927567
0.3936678, 0.3320868, 0.2936614
0.3945069, 0.3326618, 0.294476
0.3961853, 0.3338119, 0.2953923
0.3970245, 0.3343869, 0.2962152
0.3978637, 0.3349619, 0.2970414
0.3987029, 0.335537, 0.297871
0.4003812, 0.336687, 0.2988088
0.4003812, 0.336687, 0.29954
0.4012204, 0.337262, 0.3003795
0.4012204, 0.337262, 0.3011123
0.3859595, 0.332724, 0.3002821
0.3867905, 0.3333072, 0.301105
0.3876214, 0.3338904, 0.3019312
0.3884524, 0.3344737, 0.3027607
0.3892834, 0.3350569, 0.3035936
0.3901144, 0.3356402, 0.3044297
0.3909453, 0.3362234, 0.3052692
0.3917764, 0.3368066, 0.306112
0.3917764, 0.3368066, 0.3068332
0.3917764, 0.3368066, 0.3075544
0.3926073, 0.3373899, 0.3084038
0.3926073, 0.3373899, 0.3091267
0.3926073, 0.3373899, 0.3098496
0.3926073, 0.3373899, 0.3105724
0.3934383, 0.3379731, 0.3114301
0.3934383, 0.3379731, 0.3121547
0.3934383, 0.3379731, 0.3128792
0.3942693, 0.3385563, 0.3137435
0.3942693, 0.3385563, 0.3144697
0.3942693, 0.3385563, 0.3151959
0.3568752, 0.3123108, 0.3152702
0.3585371, 0.3134773, 0.3162445
0.3593681, 0.3140605, 0.3170625
0.3236388, 0.3172629, 0.313931
0.3244253, 0.3178907, 0.3147158
0.3252117, 0.3185185, 0.3155039
0.3252117, 0.3185185, 0.3161256
0.3259981, 0.3191462, 0.3169187
0.3267845, 0.319774, 0.317715
0.327571, 0.3204018, 0.3185147
0.3283574, 0.3210296, 0.3193177
0.3291439, 0.3216574, 0.320124
0.3299303, 0.3222851, 0.3209337
0.3315031, 0.3235407, 0.3219279
0.3322895, 0.3241685, 0.3227458
0.333076, 0.3247963, 0.323567
0.3338624, 0.325424, 0.3243916
0.3346488, 0.3260518, 0.3252195
0.3362217, 0.3273074, 0.3262402
0.3362217, 0.3273074, 0.3268852
0.3370081, 0.3279352, 0.327723
0.3370081, 0.3279352, 0.3283696
0.3377946, 0.328563, 0.3292124
0.3669483, 0.3234509, 0.2764032
0.3669483, 0.3234509, 0.2770797
0.3677734, 0.32404, 0.277818
0.3677734, 0.32404, 0.2784961
0.3677734, 0.32404, 0.2791742
0.3677734, 0.32404, 0.2798523
0.3685986, 0.3246291, 0.2805989
0.3685986, 0.3246291, 0.2812787
0.3685986, 0.3246291, 0.2819585
0.3694237, 0.3252182, 0.2827117
0.3694237, 0.3252182, 0.2833931
0.3694237, 0.3252182, 0.2840745
0.3694237, 0.3252182, 0.2847559
0.3694237, 0.3252182, 0.2854373
0.3702488, 0.3258073, 0.2862006
0.3702488, 0.3258073, 0.2868837
0.3702488, 0.3258073, 0.2875667
0.3702488, 0.3258073, 0.2882498
0.3710739, 0.3263964, 0.2890213
0.3710739, 0.3263964, 0.289706
0.3710739, 0.3263964, 0.2903907
0.371899, 0.3269855, 0.2911689
0.371899, 0.3269855, 0.2918553
0.3727241, 0.3275746, 0.2926384
0.3735492, 0.3281637, 0.2934248
0.3735492, 0.3281637, 0.2941145
0.3743744, 0.3287528, 0.2949059
0.3751995, 0.3293418, 0.2957006
0.3760246, 0.3299309, 0.2964986
0.3768497, 0.33052, 0.2973
0.3785, 0.3316982, 0.2982129
0.3793251, 0.3322873, 0.2990226
0.31711, 0.3082353, 0.2545027
0.31711, 0.3082353, 0.2551029
0.3163177, 0.3076134, 0.2556942
0.3163177, 0.3076134, 0.2562927
0.3163177, 0.3076134, 0.2568912
0.3163177, 0.3076134, 0.2574897
0.3155254, 0.3069915, 0.2580728
0.3155254, 0.3069915, 0.2586696
0.3155254, 0.3069915, 0.2592665
0.3155254, 0.3069915, 0.2598633
0.3155254, 0.3069915, 0.2604602
0.3147331, 0.3063696, 0.2610333
0.3147331, 0.3063696, 0.2616285
0.3147331, 0.3063696, 0.2622237
0.3147331, 0.3063696, 0.2628189
0.3147331, 0.3063696, 0.2634141
0.3147331, 0.3063696, 0.2640093
0.3147331, 0.3063696, 0.2646045
0.3147331, 0.3063696, 0.2651997
0.3147331, 0.3063696, 0.2657949
0.3147331, 0.3063696, 0.2663901
0.3147331, 0.3063696, 0.2669853
0.3147331, 0.3063696, 0.2675805
0.3147331, 0.3063696, 0.2681757
0.3147331, 0.3063696, 0.2687709
0.3147331, 0.3063696, 0.2693661
0.3147331, 0.3063696, 0.2699613
0.3147331, 0.3063696, 0.2705565
0.3147331, 0.3063696, 0.2711517
0.3147331, 0.3063696, 0.2717469
0.3139409, 0.3057477, 0.2722868
0.3139409, 0.3057477, 0.2728804
0.3687324, 0.323081, 0.2764618
0.3687324, 0.323081, 0.2771399
0.3687324, 0.323081, 0.277818
0.3687324, 0.323081, 0.2784961
0.3695599, 0.3236678, 0.2792394
0.3695599, 0.3236678, 0.2799192
0.3703873, 0.3242545, 0.2806675
0.3703873, 0.3242545, 0.2813489
0.3703873, 0.3242545, 0.2820303
0.3703873, 0.3242545, 0.2827117
0.3703873, 0.3242545, 0.2833931
0.3712148, 0.3248413, 0.2841514
0.3712148, 0.3248413, 0.2848344
0.3712148, 0.3248413, 0.2855175
0.3720422, 0.325428, 0.2862824
0.3720422, 0.325428, 0.2869671
0.3720422, 0.325428, 0.2876518
0.3720422, 0.325428, 0.2883365
0.3728697, 0.3260148, 0.2891097
0.3728697, 0.3260148, 0.2897961
0.3736972, 0.3266015, 0.2905742
0.3736972, 0.3266015, 0.2912623
0.3745246, 0.3271883, 0.2920454
0.3745246, 0.3271883, 0.2927351
0.3753521, 0.327775, 0.2935232
0.3753521, 0.327775, 0.2942145
0.377007, 0.3289485, 0.2951093
0.3778345, 0.3295353, 0.2959073
0.3778345, 0.3295353, 0.2966036
0.378662, 0.330122, 0.2974066
0.3803169, 0.3312955, 0.2983213
0.3811443, 0.3318823, 0.2991326
0.3022684, 0.3061064, 0.2730052
0.3022684, 0.3061064, 0.2735855
0.3022684, 0.3061064, 0.2741658
0.3030454, 0.3067436, 0.2748096
0.3030454, 0.3067436, 0.2753915
0.3030454, 0.3067436, 0.2759735
0.3030454, 0.3067436, 0.2765554
0.3030454, 0.3067436, 0.2771374
0.3030454, 0.3067436, 0.2777193
0.3030454, 0.3067436, 0.2783012
0.3038225, 0.3073808, 0.2789584
0.3038225, 0.3073808, 0.2795419
0.3038225, 0.3073808, 0.2801255
0.3038225, 0.3073808, 0.2807091
0.3038225, 0.3073808, 0.2812927
0.3038225, 0.3073808, 0.2818763
0.3045995, 0.3080179, 0.282545
0.3045995, 0.3080179, 0.2831303
0.3045995, 0.3080179, 0.2837155
0.3045995, 0.3080179, 0.2843008
0.3045995, 0.3080179, 0.284886
0.3045995, 0.3080179, 0.2854713
0.3045995, 0.3080179, 0.2860565
0.3045995, 0.3080179, 0.2866418
0.3045995, 0.3080179, 0.287227
0.3053766, 0.3086551, 0.2879123
0.3053766, 0.3086551, 0.2884992
0.3053766, 0.3086551, 0.2890862
0.3053766, 0.3086551, 0.2896731
0.3053766, 0.3086551, 0.29026
0.3053766, 0.3086551, 0.2908469
0.3061536, 0.3092923, 0.2915438
0.2699841, 0.3412192, 0.2392739
0.3819718, 0.332469, 0.2999472
0.3827993, 0.3330558, 0.3007651
0.3836267, 0.3336425, 0.3015863
0.3844542, 0.3342293, 0.3024109
0.3861091, 0.3354028, 0.303357
0.3869366, 0.3359895, 0.3041899
0.387764, 0.3365763, 0.3050261
0.3885915, 0.337163, 0.3058655
0.389419, 0.3377497, 0.3067083
0.389419, 0.3377497, 0.3074279
0.3902465, 0.3383365, 0.3082756
0.3902465, 0.3383365, 0.3089968
0.3902465, 0.3383365, 0.309718
0.3497007, 0.3095858, 0.3115923
0.3505282, 0.3101725, 0.312387
0.3513557, 0.3107592, 0.313185
0.3521831, 0.311346, 0.3139864
0.3530106, 0.3119327, 0.3147911
0.3538381, 0.3125195, 0.315599
0.3546655, 0.3131062, 0.3164103
0.3735273, 0.3182862, 0.2384884
0.3743665, 0.3188612, 0.2391339
0.3743665, 0.3188612, 0.2398136
0.3735273, 0.3182862, 0.2405227
0.3735273, 0.3182862, 0.2412008
0.3726881, 0.3177111, 0.2419048
0.3718489, 0.3171361, 0.2426056
0.3701705, 0.315986, 0.2433257
0.3693313, 0.315411, 0.2440181
0.3659746, 0.3131109, 0.2454285
0.3651354, 0.3125359, 0.2461077
0.3651354, 0.3125359, 0.2467692
0.3642962, 0.3119608, 0.2474434
0.363457, 0.3113858, 0.2481143
0.363457, 0.3113858, 0.2487725
0.3626179, 0.3108108, 0.2494384
0.3626179, 0.3108108, 0.250095
0.3617786, 0.3102357, 0.2507559
0.3617786, 0.3102357, 0.2514108
0.3617786, 0.3102357, 0.2520657
0.3609395, 0.3096607, 0.2527201
0.3609395, 0.3096607, 0.2533733
0.3609395, 0.3096607, 0.2540265
0.3109453, 0.3101574, 0.2544861
0.3109453, 0.3101574, 0.2550813
0.3101636, 0.3095249, 0.2556677
0.3101636, 0.3095249, 0.2562612
0.3093818, 0.3088925, 0.2568426
0.3093818, 0.3088925, 0.2574345
0.3093818, 0.3088925, 0.2580263
0.3086001, 0.30826, 0.2586011
0.3086001, 0.30826, 0.2591913
0.3086001, 0.30826, 0.2597815
0.3086001, 0.30826, 0.2603718
0.3086001, 0.30826, 0.260962
0.3078184, 0.3076275, 0.2615268
0.3078184, 0.3076275, 0.2621154
0.3078184, 0.3076275, 0.2627039
0.3078184, 0.3076275, 0.2632925
0.3070366, 0.306995, 0.263849
0.3070366, 0.306995, 0.2644359
0.3070366, 0.306995, 0.2650228
0.3070366, 0.306995, 0.2656097
0.3070366, 0.306995, 0.2661966
0.3070366, 0.306995, 0.2667836
0.3062549, 0.3063626, 0.2673285
0.3062549, 0.3063626, 0.2679137
0.3062549, 0.3063626, 0.268499
0.3062549, 0.3063626, 0.2690842
0.3062549, 0.3063626, 0.2696695
0.3062549, 0.3063626, 0.2702547
0.3062549, 0.3063626, 0.27084
0.3062549, 0.3063626, 0.2714252
0.3062549, 0.3063626, 0.2720105
0.3062549, 0.3063626, 0.2725957
0.4290389, 0.3249999, 0.2797907
0.4281587, 0.3244659, 0.2804798
0.4281587, 0.3244659, 0.2812292
0.4272785, 0.3239319, 0.2819134
0.4272785, 0.3239319, 0.2826611
0.4263983, 0.3233979, 0.2833403
0.4263982, 0.3233979, 0.2840864
0.4263982, 0.3233979, 0.2848324
0.4263982, 0.3233979, 0.2855785
0.4255181, 0.3228639, 0.2862494
0.4255181, 0.3228639, 0.2869938
0.4255181, 0.3228639, 0.2877383
0.4255181, 0.3228639, 0.2884827
0.4263982, 0.3233979, 0.2893089
0.4263982, 0.3233979, 0.2900549
0.4263982, 0.3233979, 0.290801
0.4272785, 0.3239319, 0.2916339
0.4272785, 0.3239319, 0.2923816
0.4272785, 0.3239319, 0.2931293
0.4281587, 0.3244659, 0.2939688
0.4281587, 0.3244659, 0.2947182
0.4290389, 0.3249999, 0.2955626
0.4290389, 0.3249999, 0.2963137
0.4290389, 0.3249999, 0.2970647
0.2677706, 0.3123199, 0.2931712
0.2677706, 0.3123199, 0.2937183
0.2684902, 0.3130146, 0.294392
0.2684902, 0.3130146, 0.2949408
0.2684902, 0.3130146, 0.2954895
0.2684902, 0.3130146, 0.2960383
0.2684902, 0.3130146, 0.2965871
0.2692098, 0.3137092, 0.2972707
0.2692098, 0.3137092, 0.2978212
0.2699294, 0.3144037, 0.2985097
0.270649, 0.3150984, 0.2992017
0.270649, 0.3150984, 0.2997554
0.270649, 0.3150984, 0.3003092
0.2713686, 0.315793, 0.3010077
0.2713686, 0.315793, 0.3015631
0.2720882, 0.3164876, 0.3022667
0.2720882, 0.3164876, 0.3028237
0.2728078, 0.3171822, 0.3035322
0.2728078, 0.3171822, 0.3040909
0.2728078, 0.3171822, 0.3046497
0.2728078, 0.3171822, 0.3052084
0.3173474, 0.3122406, 0.2496781
0.316561, 0.3116128, 0.2502893
0.316561, 0.3116128, 0.2514963
0.3157745, 0.3109851, 0.2521009
0.3157745, 0.3109851, 0.2527027
0.3149881, 0.3103573, 0.2533023
0.3142017, 0.3097295, 0.2538987
0.4039398, 0.3373711, 0.3020684
0.4039398, 0.3373711, 0.3028045
0.4039398, 0.3373711, 0.3035406
0.4030983, 0.3367984, 0.3041601
0.4030983, 0.3367984, 0.3048946
0.4022568, 0.3362257, 0.3055091
0.4022568, 0.3362257, 0.3062419
0.4022568, 0.3362257, 0.3069747
0.4022568, 0.3362257, 0.3077075
0.4022568, 0.3362257, 0.3084404
0.4022568, 0.3362257, 0.3091732
0.4022568, 0.3362257, 0.309906
0.4030983, 0.3367984, 0.3107703
0.4030983, 0.3367984, 0.3115048
0.4039398, 0.3373711, 0.3123741
0.4039398, 0.3373711, 0.3131102
0.4047814, 0.3379437, 0.3139845
0.4056229, 0.3385164, 0.3148621
0.4064644, 0.3390891, 0.315743
0.4064644, 0.3390891, 0.3164842
0.407306, 0.3396618, 0.31737
0.4081475, 0.3402345, 0.3182592
0.3346274, 0.3048601, 0.2742941
0.3346274, 0.3048601, 0.2749109
0.3346274, 0.3048601, 0.2755276
0.3346274, 0.3048601, 0.2761444
0.3346274, 0.3048601, 0.2767611
0.3346274, 0.3048601, 0.2773779
0.3354455, 0.3054563, 0.2885762
0.3354455, 0.3054563, 0.2904314
0.3362635, 0.3060524, 0.2911532
0.3362635, 0.3060524, 0.2917732
0.3362635, 0.3060524, 0.2923933
0.3362635, 0.3060524, 0.2930134
0.3362635, 0.3060524, 0.2936334
0.3102695, 0.3065906, 0.2733567
0.3102695, 0.3065906, 0.273947
0.3102695, 0.3065906, 0.2745372
0.3102695, 0.3065906, 0.2751274
0.3102695, 0.3065906, 0.2757176
0.3102695, 0.3065906, 0.2763079
0.3102695, 0.3065906, 0.2768981
0.3102695, 0.3065906, 0.2774883
0.3102695, 0.3065906, 0.2780786
0.3102695, 0.3065906, 0.2786688
0.3102695, 0.3065906, 0.279259
0.3102695, 0.3065906, 0.2798492
0.3102695, 0.3065906, 0.2804395
0.3102695, 0.3065906, 0.2810297
0.3102695, 0.3065906, 0.2816199
0.3102695, 0.3065906, 0.2822101
0.3102695, 0.3065906, 0.2828004
0.3110559, 0.3072184, 0.2834774
0.3110559, 0.3072184, 0.2840692
0.3110559, 0.3072184, 0.2846611
0.3110559, 0.3072184, 0.285253
0.3110559, 0.3072184, 0.2858449
0.3110559, 0.3072184, 0.2864368
0.3118424, 0.3078461, 0.2871254
0.3118424, 0.3078461, 0.2877189
0.3118424, 0.3078461, 0.2883125
0.3118424, 0.3078461, 0.288906
0.3118424, 0.3078461, 0.2894996
0.3118424, 0.3078461, 0.2900931
0.3118424, 0.3078461, 0.2906866
0.3126288, 0.3084739, 0.2913885
0.3126288, 0.3084739, 0.2919837
0.3446701, 0.3075453, 0.2470277
0.343845, 0.3069562, 0.2476721
0.3430199, 0.3063671, 0.2483132
0.3430199, 0.3063671, 0.2489415
0.3421948, 0.305778, 0.2495776
0.3421948, 0.305778, 0.2502043
0.3421948, 0.305778, 0.250831
0.3421948, 0.305778, 0.2514577
0.3413696, 0.3051889, 0.2520855
0.3405445, 0.3045999, 0.25271
0.3405445, 0.3045999, 0.2533334
0.3405445, 0.3045999, 0.2539568
0.3670065, 0.3106648, 0.2547074
0.3670065, 0.3106648, 0.2553689
0.3678503, 0.3112352, 0.2560393
0.3678503, 0.3112352, 0.2567025
0.3678503, 0.3112352, 0.2573656
0.3686942, 0.3118055, 0.2580426
0.3686942, 0.3118055, 0.2587075
0.3695381, 0.3123758, 0.2593894
0.370382, 0.3129462, 0.2600747
0.3712258, 0.3135165, 0.2607633
0.3712258, 0.3135165, 0.2614331
0.3720697, 0.3140869, 0.2621267
0.3729136, 0.3146572, 0.2628236
0.3737575, 0.3152275, 0.2635238
0.3737575, 0.3152275, 0.2641986
0.3746013, 0.3157979, 0.2649038
0.3754452, 0.3163682, 0.2656123
0.3754452, 0.3163682, 0.2662904
0.3762891, 0.3169385, 0.2670038
0.3762891, 0.3169385, 0.2676836
0.377133, 0.3175089, 0.268402
0.377133, 0.3175089, 0.2690834
0.377133, 0.3175089, 0.2697649
0.3779768, 0.3180792, 0.2704899
0.3779768, 0.3180792, 0.271173
0.3779768, 0.3180792, 0.2718561
0.3779768, 0.3180792, 0.2725391
0.3779768, 0.3180792, 0.2732222
0.3779768, 0.3180792, 0.2739053
0.3796646, 0.3192199, 0.2746956
0.38015, 0.3187345, 0.3261746
0.38015, 0.3187345, 0.326861
0.380995, 0.3193037, 0.3277287
0.380995, 0.3193037, 0.3284167
0.3061536, 0.3092923, 0.2921323
0.3061536, 0.3092923, 0.2927209
0.3061536, 0.3092923, 0.2933095
0.3069307, 0.3099294, 0.2940147
0.3069307, 0.3099294, 0.2946049
0.3077077, 0.3105666, 0.2953151
0.3077077, 0.3105666, 0.2959069
0.3084848, 0.3112037, 0.2966221
0.3084848, 0.3112037, 0.2972156
0.3092618, 0.3118409, 0.2979357
0.3092618, 0.3118409, 0.2985309
0.3100389, 0.312478, 0.299256
0.3100389, 0.312478, 0.2998528
0.3100389, 0.312478, 0.3004497
0.3108159, 0.3131152, 0.3011814
0.3108159, 0.3131152, 0.3017799
0.311593, 0.3137524, 0.3025166
0.311593, 0.3137524, 0.3031168
0.31237, 0.3143895, 0.3038585
0.31237, 0.3143895, 0.3044603
0.3131471, 0.3150267, 0.3052069
0.3139241, 0.3156638, 0.3059568
0.3139241, 0.3156638, 0.306562
0.3147012, 0.316301, 0.3073169
0.3154782, 0.3169382, 0.3080752
0.3154782, 0.3169382, 0.3086836
0.3162553, 0.3175753, 0.3094468
0.3170323, 0.3182125, 0.3102134
0.3170323, 0.3182125, 0.3108251
0.3178094, 0.3188497, 0.3115966
0.3185864, 0.3194868, 0.3123715
0.3193635, 0.320124, 0.3131496
0.3753278, 0.3178999, 0.3241033
0.3761693, 0.3184725, 0.3249593
0.3761693, 0.3184725, 0.3256407
0.3761693, 0.3184725, 0.3263221
0.3770108, 0.3190452, 0.3271848
0.3770108, 0.3190452, 0.3278679
0.3770108, 0.3190452, 0.328551
0.3770108, 0.3190452, 0.329234
0.4017364, 0.3197755, 0.2563047
0.4017364, 0.3197755, 0.2570176
0.4026002, 0.3203259, 0.2577427
0.4026002, 0.3203259, 0.2584573
0.4026002, 0.3203259, 0.2591718
0.4026002, 0.3203259, 0.2598864
0.4017364, 0.3197755, 0.2605822
0.4017364, 0.3197755, 0.2612951
0.4008726, 0.3192251, 0.2619859
0.4000088, 0.3186747, 0.2626734
0.4000088, 0.3186747, 0.263383
0.4000088, 0.3186747, 0.2640926
0.4000088, 0.3186747, 0.2648022
0.4000088, 0.3186747, 0.2655118
0.4000088, 0.3186747, 0.2662214
0.4008726, 0.3192251, 0.2669647
0.4008726, 0.3192251, 0.267676
0.4008726, 0.3192251, 0.2683872
0.4017364, 0.3197755, 0.2691372
0.4026002, 0.3203259, 0.2698904
0.403464, 0.3208763, 0.270647
0.4043278, 0.3214267, 0.2714069
0.4051916, 0.3219771, 0.2721701
0.4069192, 0.3230779, 0.2729836
0.407783, 0.3236283, 0.2737551
0.4086469, 0.3241788, 0.2745299
0.4095106, 0.3247291, 0.2753081
0.4121021, 0.3263804, 0.2761967
0.4129659, 0.3269308, 0.2769848
0.4138297, 0.3274812, 0.2777762
0.3320107, 0.3074768, 0.2483905
0.3311997, 0.3068736, 0.2490166
0.3311997, 0.3068736, 0.2496317
0.3311997, 0.3068736, 0.2502468
0.3303886, 0.3062705, 0.2508663
0.3303886, 0.3062705, 0.2514798
0.3295776, 0.3056673, 0.2520943
0.3295776, 0.3056673, 0.2527061
0.3287665, 0.3050641, 0.2533157
0.3287665, 0.3050641, 0.2539258
0.4096741, 0.313252, 0.255599
0.4105543, 0.313786, 0.2563224
0.4114346, 0.31432, 0.2570491
0.4123148, 0.314854, 0.2577792
0.413195, 0.315388, 0.2585126
0.413195, 0.315388, 0.2592338
0.413195, 0.315388, 0.259955
0.413195, 0.315388, 0.2606762
0.413195, 0.315388, 0.2613974
0.413195, 0.315388, 0.2621186
0.4140752, 0.315922, 0.2628636
0.4140752, 0.315922, 0.2635864
0.4140752, 0.315922, 0.2643093
0.4149554, 0.316456, 0.2650609
0.4149554, 0.316456, 0.2657854
0.4158356, 0.31699, 0.266542
0.4158356, 0.31699, 0.2672682
0.4167159, 0.317524, 0.2680297
0.4167159, 0.317524, 0.2687576
0.4175961, 0.318058, 0.2695241
0.4175961, 0.318058, 0.2702536
0.4175961, 0.318058, 0.2709831
0.4175961, 0.318058, 0.2717126
0.4184763, 0.318592, 0.2724874
0.3201406, 0.3207611, 0.313931
0.3209176, 0.3213983, 0.3147158
0.3216947, 0.3220355, 0.3155039
0.3224717, 0.3226726, 0.3162953
0.3240258, 0.323947, 0.3172613
0.3255799, 0.3252213, 0.318234
0.326357, 0.3258584, 0.3190386
0.3279111, 0.3271328, 0.3200229
0.3286881, 0.3277699, 0.3208359
0.3294652, 0.3284071, 0.3216521
0.3302422, 0.3290442, 0.3224717
0.3310193, 0.3296814, 0.3232946
0.3317963, 0.3303186, 0.3241208
0.3317963, 0.3303186, 0.3247641
0.3317963, 0.3303186, 0.3254074
0.3325734, 0.3309557, 0.3262402
0.3325734, 0.3309557, 0.3268852
0.3325734, 0.3309557, 0.3275301
0.3545398, 0.3075752, 0.2546465
0.3545398, 0.3075752, 0.2552898
0.3545398, 0.3075752, 0.2559331
0.3545398, 0.3075752, 0.2565764
0.3545398, 0.3075752, 0.2572197
0.3553754, 0.3081537, 0.2578768
0.3553754, 0.3081537, 0.2585217
0.3562111, 0.3087323, 0.2591838
0.3654034, 0.3150963, 0.2620316
0.3670748, 0.3162533, 0.2627473
0.3679104, 0.3168319, 0.2634425
0.3679104, 0.3168319, 0.2641124
0.3687461, 0.3174104, 0.2648126
0.3695818, 0.317989, 0.2655161
0.3695818, 0.317989, 0.2661892
0.3695818, 0.317989, 0.2668623
0.3704174, 0.3185675, 0.2675725
0.3704174, 0.3185675, 0.2682473
0.3704174, 0.3185675, 0.2689221
0.3704174, 0.3185675, 0.2695968
0.3704174, 0.3185675, 0.2702716
0.3712531, 0.3191461, 0.2709917
0.3712531, 0.3191461, 0.2716682
0.3712531, 0.3191461, 0.2723446
0.3712531, 0.3191461, 0.273021
0.3720888, 0.3197246, 0.2737494
0.3720888, 0.3197246, 0.2744275
0.3720888, 0.3197246, 0.2751056
0.3729245, 0.3203031, 0.2758406
0.31237, 0.3143895, 0.2484899
0.311593, 0.3137524, 0.2491011
0.311593, 0.3137524, 0.2497013
0.3108159, 0.3131152, 0.2515046
0.3100389, 0.312478, 0.252701
0.3092618, 0.3118409, 0.2532957
0.3084848, 0.3112037, 0.253887
0.4052731, 0.310582, 0.237906
0.4043928, 0.310048, 0.2386449
0.4043928, 0.310048, 0.2393495
0.4043928, 0.310048, 0.2400541
0.4043928, 0.310048, 0.2407587
0.4043928, 0.310048, 0.2414634
0.4035126, 0.309514, 0.2421923
0.4035126, 0.309514, 0.2428953
0.4035126, 0.309514, 0.2435982
0.4035126, 0.309514, 0.2443012
0.4035126, 0.309514, 0.2450042
0.4035126, 0.309514, 0.2457071
0.4035126, 0.309514, 0.2464101
0.4035126, 0.309514, 0.2471131
0.4035126, 0.309514, 0.247816
0.4035126, 0.309514, 0.248519
0.4035126, 0.309514, 0.249222
0.4035126, 0.309514, 0.2499249
0.4035126, 0.309514, 0.2506279
0.4035126, 0.309514, 0.2513309
0.4043928, 0.310048, 0.2520327
0.4043928, 0.310048, 0.2527374
0.4052731, 0.310582, 0.2534442
0.4070335, 0.31165, 0.2541582
0.3142017, 0.3097295, 0.2544972
0.3134152, 0.3091017, 0.2550885
0.3134152, 0.3091017, 0.2556854
0.3126288, 0.3084739, 0.2562717
0.3126288, 0.3084739, 0.2568669
0.3126288, 0.3084739, 0.2574621
0.3118424, 0.3078461, 0.2580418
0.3118424, 0.3078461, 0.2586354
0.3118424, 0.3078461, 0.2592289
0.3118424, 0.3078461, 0.2598225
0.3118424, 0.3078461, 0.260416
0.3110559, 0.3072184, 0.2609858
0.3110559, 0.3072184, 0.2615776
0.3110559, 0.3072184, 0.2621695
0.3110559, 0.3072184, 0.2627614
0.3102695, 0.3065906, 0.2633229
0.3102695, 0.3065906, 0.2639131
0.3102695, 0.3065906, 0.2645034
0.3102695, 0.3065906, 0.2650936
0.3102695, 0.3065906, 0.2656838
0.3102695, 0.3065906, 0.266274
0.3102695, 0.3065906, 0.2668643
0.3102695, 0.3065906, 0.2674545
0.3102695, 0.3065906, 0.2680447
0.3102695, 0.3065906, 0.2686349
0.3102695, 0.3065906, 0.2692252
0.3102695, 0.3065906, 0.2698154
0.3102695, 0.3065906, 0.2704056
0.3102695, 0.3065906, 0.2709958
0.3102695, 0.3065906, 0.2715861
0.3102695, 0.3065906, 0.2721763
0.3102695, 0.3065906, 0.2727665
0.4285078, 0.3255309, 0.2797907
0.4276288, 0.3249958, 0.2804798
0.4276288, 0.3249958, 0.2812292
0.4267498, 0.3244606, 0.2819134
0.4267498, 0.3244606, 0.2826611
0.4258707, 0.3239255, 0.2833403
0.4258707, 0.3239255, 0.2840864
0.4249917, 0.3233903, 0.2847606
0.4249917, 0.3233903, 0.285505
0.4249917, 0.3233903, 0.2862494
0.4249917, 0.3233903, 0.2869938
0.4249917, 0.3233903, 0.2877383
0.4249917, 0.3233903, 0.2884827
0.4249917, 0.3233903, 0.2892271
0.4258707, 0.3239255, 0.2900549
0.4258707, 0.3239255, 0.290801
0.4258707, 0.3239255, 0.2915471
0.4267498, 0.3244606, 0.2923816
0.4267498, 0.3244606, 0.2931293
0.4276288, 0.3249958, 0.2939688
0.4276288, 0.3249958, 0.2947182
0.4276288, 0.3249958, 0.2954676
0.4276288, 0.3249958, 0.296217
0.4285078, 0.3255309, 0.2970647
0.3077077, 0.3105666, 0.254475
0.3077077, 0.3105666, 0.2550669
0.3069307, 0.3099294, 0.25565
0.3069307, 0.3099294, 0.2562402
0.3069307, 0.3099294, 0.2568304
0.3061536, 0.3092923, 0.2574068
0.3061536, 0.3092923, 0.2579954
0.3053766, 0.3086551, 0.2585668
0.3053766, 0.3086551, 0.2591537
0.3053766, 0.3086551, 0.2597406
0.3053766, 0.3086551, 0.2603275
0.3053766, 0.3086551, 0.2609144
0.3045995, 0.3080179, 0.2614759
0.3045995, 0.3080179, 0.2620612
0.3045995, 0.3080179, 0.2626464
0.3045995, 0.3080179, 0.2632317
0.3038225, 0.3073808, 0.2637849
0.3038225, 0.3073808, 0.2643685
0.3038225, 0.3073808, 0.2649521
0.3038225, 0.3073808, 0.2655357
0.3038225, 0.3073808, 0.2661193
0.3030454, 0.3067436, 0.2666625
0.3030454, 0.3067436, 0.2672445
0.3030454, 0.3067436, 0.2678264
0.3030454, 0.3067436, 0.2684083
0.3030454, 0.3067436, 0.2689902
0.3022684, 0.3061064, 0.2695236
0.3022684, 0.3061064, 0.2701038
0.3022684, 0.3061064, 0.2706841
0.3022684, 0.3061064, 0.2712644
0.3022684, 0.3061064, 0.2718447
0.3022684, 0.3061064, 0.2724249
0.311893, 0.3063813, 0.2734153
0.311893, 0.3063813, 0.2740072
0.311893, 0.3063813, 0.2745991
0.311893, 0.3063813, 0.275191
0.311893, 0.3063813, 0.2757829
0.311893, 0.3063813, 0.2763748
0.311893, 0.3063813, 0.2769666
0.311893, 0.3063813, 0.2775585
0.311893, 0.3063813, 0.2781504
0.311893, 0.3063813, 0.2787423
0.311893, 0.3063813, 0.2793342
0.311893, 0.3063813, 0.2799261
0.311893, 0.3063813, 0.2805179
0.311893, 0.3063813, 0.2811098
0.311893, 0.3063813, 0.2817017
0.311893, 0.3063813, 0.2822936
0.311893, 0.3063813, 0.2828855
0.3126817, 0.3070067, 0.2835641
0.3126817, 0.3070067, 0.2841577
0.3126817, 0.3070067, 0.2847512
0.3126817, 0.3070067, 0.2853447
0.3126817, 0.3070067, 0.2859383
0.3126817, 0.3070067, 0.2865318
0.3126817, 0.3070067, 0.2871254
0.3134705, 0.3076322, 0.2878173
0.3134705, 0.3076322, 0.2884125
0.3134705, 0.3076322, 0.2890077
0.3134705, 0.3076322, 0.2896029
0.3134705, 0.3076322, 0.2901981
0.3134705, 0.3076322, 0.2907933
0.3134705, 0.3076322, 0.2913885
0.3142593, 0.3082576, 0.2920937
0.3825767, 0.3163078, 0.2403762
0.3817258, 0.3157445, 0.2410903
0.3817258, 0.3157445, 0.241775
0.3808749, 0.3151812, 0.242484
0.3808749, 0.3151812, 0.2431671
0.380024, 0.3146179, 0.2438712
0.380024, 0.3146179, 0.2445526
0.379173, 0.3140546, 0.2452517
0.3783221, 0.3134913, 0.2459475
0.3783221, 0.3134913, 0.2466255
0.3774712, 0.312928, 0.2473163
0.3774712, 0.312928, 0.2479928
0.3766203, 0.3123647, 0.2486786
0.3766203, 0.3123647, 0.2493534
0.3766203, 0.3123647, 0.2500282
0.3757694, 0.3118013, 0.2507074
0.3757694, 0.3118013, 0.2513805
0.3757694, 0.3118013, 0.2520536
0.3749185, 0.3112381, 0.2527262
0.3749185, 0.3112381, 0.2533976
0.3749185, 0.3112381, 0.2540691
0.3142593, 0.3082576, 0.2926905
0.3142593, 0.3082576, 0.2932874
0.3142593, 0.3082576, 0.2938843
0.3142593, 0.3082576, 0.2944811
0.3142593, 0.3082576, 0.295078
0.3150481, 0.3088831, 0.2957948
0.3150481, 0.3088831, 0.2963933
0.3150481, 0.3088831, 0.2969918
0.3150481, 0.3088831, 0.2975903
0.3158368, 0.3095085, 0.2983154
0.3158368, 0.3095085, 0.2989156
0.3158368, 0.3095085, 0.2995158
0.3158368, 0.3095085, 0.3001159
0.3166256, 0.3101339, 0.3008493
0.3166256, 0.3101339, 0.3014511
0.3166256, 0.3101339, 0.3020529
0.3174144, 0.3107594, 0.302793
0.3174144, 0.3107594, 0.3033964
0.3182032, 0.3113848, 0.3041414
0.3182032, 0.3113848, 0.3047466
0.318992, 0.3120103, 0.3054965
0.318992, 0.3120103, 0.3061033
0.3197807, 0.3126357, 0.3068582
0.3205695, 0.3132612, 0.3076165
0.3205695, 0.3132612, 0.3082266
0.3213583, 0.3138866, 0.3089898
0.3213583, 0.3138866, 0.3096016
0.322147, 0.314512, 0.3103698
0.3229358, 0.3151374, 0.3111413
0.3237246, 0.3157629, 0.3119161
0.3237246, 0.3157629, 0.3125328
0.3245134, 0.3163883, 0.3133126
0.4021476, 0.3292638, 0.2781022
0.4021476, 0.3292638, 0.2788268
0.4021476, 0.3292638, 0.2795513
0.4021476, 0.3292638, 0.2802758
0.4021476, 0.3292638, 0.2810003
0.4012967, 0.3287005, 0.281658
0.4012967, 0.3287005, 0.2823808
0.4004458, 0.3281372, 0.2830335
0.4004458, 0.3281372, 0.2837547
0.4004458, 0.3281372, 0.2844759
0.3995949, 0.3275739, 0.2851219
0.3995949, 0.3275739, 0.2858415
0.4004458, 0.3281372, 0.2866395
0.4004458, 0.3281372, 0.2873607
0.4004458, 0.3281372, 0.2880819
0.4012967, 0.3287005, 0.2888866
0.4012967, 0.3287005, 0.2896094
0.4021476, 0.3292638, 0.2904191
0.4038494, 0.3303904, 0.2913204
0.4047003, 0.3309537, 0.2921384
0.4055513, 0.331517, 0.2929596
0.4072531, 0.3326436, 0.2938776
0.408104, 0.3332069, 0.2947071
0.4098058, 0.3343335, 0.2956367
0.4106567, 0.3348968, 0.2964745
0.4115076, 0.3354601, 0.2973156
0.4123586, 0.3360234, 0.29816
0.4123586, 0.3360234, 0.2989045
0.4132094, 0.3365867, 0.2997539
0.4132094, 0.3365867, 0.3005
0.4140604, 0.33715, 0.3013544
0.4140604, 0.33715, 0.3021021
0.3031745, 0.3136856, 0.2503379
0.302408, 0.3130379, 0.2509326
0.302408, 0.3130379, 0.2515211
0.3016415, 0.3123901, 0.2521108
0.300875, 0.3117425, 0.2526971
0.300875, 0.3117425, 0.2532824
0.3001085, 0.3110947, 0.2538638
0.4074107, 0.3126869, 0.2548734
0.4091688, 0.3137573, 0.2563136
0.4100479, 0.3142924, 0.2570387
0.411806, 0.3153628, 0.2577792
0.411806, 0.3153628, 0.2584988
0.411806, 0.3153628, 0.2592183
0.412685, 0.3158979, 0.259955
0.412685, 0.3158979, 0.2606762
0.412685, 0.3158979, 0.2613974
0.412685, 0.3158979, 0.2621186
0.412685, 0.3158979, 0.2628398
0.412685, 0.3158979, 0.263561
0.4135641, 0.3164331, 0.2643093
0.4135641, 0.3164331, 0.2650321
0.4144431, 0.3169683, 0.2657854
0.4144431, 0.3169683, 0.2665099
0.4153222, 0.3175035, 0.2672682
0.4153222, 0.3175035, 0.2679943
0.4162012, 0.3180386, 0.2687576
0.4162012, 0.3180386, 0.2694854
0.4170803, 0.3185738, 0.2702536
0.4170803, 0.3185738, 0.2709831
0.4170803, 0.3185738, 0.2717126
0.4179593, 0.319109, 0.2724874
0.3245134, 0.3163883, 0.313931
0.3253022, 0.3170137, 0.3147158
0.3260909, 0.3176392, 0.3155039
0.3260909, 0.3176392, 0.3161256
0.3268797, 0.3182646, 0.3169187
0.3276685, 0.3188901, 0.317715
0.3284573, 0.3195155, 0.3185147
0.3284573, 0.3195155, 0.3191414
0.329246, 0.3201409, 0.3199461
0.3308236, 0.3213918, 0.3209337
0.3316124, 0.3220173, 0.3217466
0.3324011, 0.3226427, 0.3225629
0.3331899, 0.3232681, 0.3233824
0.3339787, 0.3238936, 0.3242053
0.3347675, 0.324519, 0.3250315
0.336345, 0.3257699, 0.3260506
0.3371338, 0.3263953, 0.3268852
0.3371338, 0.3263953, 0.3275301
0.3379226, 0.3270208, 0.3283696
0.3379226, 0.3270208, 0.3290161
0.3044889, 0.310957, 0.254464
0.3037165, 0.3103151, 0.2550454
0.3037165, 0.3103151, 0.2556323
0.3037165, 0.3103151, 0.2562192
0.3029442, 0.3096733, 0.2567939
0.3029442, 0.3096733, 0.2573792
0.3021718, 0.3090314, 0.2579489
0.3021718, 0.3090314, 0.2585325
0.3021718, 0.3090314, 0.2591161
0.3021718, 0.3090314, 0.2596997
0.3021718, 0.3090314, 0.2602833
0.3021718, 0.3090314, 0.2608669
0.3021718, 0.3090314, 0.2614505
0.3021718, 0.3090314, 0.2620341
0.3021718, 0.3090314, 0.2626177
0.3021718, 0.3090314, 0.2632013
0.3013994, 0.3083896, 0.2637528
0.3013994, 0.3083896, 0.2643348
0.3013994, 0.3083896, 0.2649167
0.3006271, 0.3077477, 0.2654616
0.3006271, 0.3077477, 0.2660419
0.3006271, 0.3077477, 0.2666222
0.3006271, 0.3077477, 0.2672024
0.3006271, 0.3077477, 0.2677827
0.3006271, 0.3077477, 0.268363
0.3006271, 0.3077477, 0.2689433
0.2998547, 0.3071059, 0.2694749
0.2998547, 0.3071059, 0.2700535
0.2998547, 0.3071059, 0.2706321
0.2998547, 0.3071059, 0.2712108
0.2998547, 0.3071059, 0.2717894
0.2998547, 0.3071059, 0.272368
0.4038945, 0.3105462, 0.2386449
0.4038945, 0.3105462, 0.2393495
0.4030155, 0.3100111, 0.2400834
0.4030155, 0.3100111, 0.2407864
0.4030155, 0.3100111, 0.2414893
0.4030155, 0.3100111, 0.2421923
0.4030155, 0.3100111, 0.2428953
0.4030155, 0.3100111, 0.2435982
0.4021364, 0.3094759, 0.2443205
0.4021364, 0.3094759, 0.2450218
0.4030155, 0.3100111, 0.2457071
0.4030155, 0.3100111, 0.2464101
0.4030155, 0.3100111, 0.2471131
0.4030155, 0.3100111, 0.247816
0.4030155, 0.3100111, 0.248519
0.4030155, 0.3100111, 0.249222
0.4030155, 0.3100111, 0.2499249
0.4030155, 0.3100111, 0.2506279
0.4030155, 0.3100111, 0.2513309
0.4030155, 0.3100111, 0.2520338
0.4038945, 0.3105462, 0.2527374
0.4047736, 0.3110814, 0.2534442
0.4056526, 0.3116166, 0.2541544
0.2998547, 0.3071059, 0.2729466
0.2998547, 0.3071059, 0.2735253
0.2998547, 0.3071059, 0.2741039
0.2998547, 0.3071059, 0.2746825
0.2998547, 0.3071059, 0.2752611
0.2998547, 0.3071059, 0.2758397
0.2998547, 0.3071059, 0.2764184
0.2998547, 0.3071059, 0.276997
0.3006271, 0.3077477, 0.2776475
0.3006271, 0.3077477, 0.2782277
0.3006271, 0.3077477, 0.278808
0.3006271, 0.3077477, 0.2793883
0.3013994, 0.3083896, 0.2800471
0.3013994, 0.3083896, 0.280629
0.3013994, 0.3083896, 0.2812109
0.3013994, 0.3083896, 0.2817928
0.3013994, 0.3083896, 0.2823748
0.3013994, 0.3083896, 0.2829567
0.3013994, 0.3083896, 0.2835387
0.3013994, 0.3083896, 0.2841206
0.3021718, 0.3090314, 0.2847943
0.3021718, 0.3090314, 0.2853779
0.3021718, 0.3090314, 0.2859615
0.3021718, 0.3090314, 0.2865451
0.3021718, 0.3090314, 0.2871287
0.3021718, 0.3090314, 0.2877123
0.3021718, 0.3090314, 0.2882959
0.3021718, 0.3090314, 0.2888795
0.3021718, 0.3090314, 0.289463
0.3021718, 0.3090314, 0.2900466
0.3021718, 0.3090314, 0.2906302
0.3021718, 0.3090314, 0.2912138
0.3266175, 0.3156984, 0.3140957
0.3266175, 0.3156984, 0.3147158
0.3274098, 0.3163203, 0.3155039
0.3282021, 0.3169422, 0.3162953
0.3282021, 0.3169422, 0.3169187
0.3289944, 0.3175641, 0.317715
0.3297867, 0.3181861, 0.3185147
0.3297867, 0.3181861, 0.3191414
0.330579, 0.318808, 0.3199461
0.3313713, 0.3194299, 0.3207541
0.3321636, 0.3200518, 0.3215653
0.3329559, 0.3206738, 0.3223799
0.3337482, 0.3212957, 0.3231979
0.3345405, 0.3219176, 0.3240191
0.3353328, 0.3225395, 0.3248436
0.336125, 0.3231614, 0.3256715
0.3369173, 0.3237834, 0.3265027
0.3377096, 0.3244053, 0.3273372
0.3385019, 0.3250272, 0.328175
0.3392942, 0.3256491, 0.3290161
0.3749185, 0.3112381, 0.2547406
0.3749185, 0.3112381, 0.255412
0.3749185, 0.3112381, 0.2560835
0.3766203, 0.3123647, 0.2574508
0.379173, 0.3140546, 0.258167
0.380024, 0.3146179, 0.2588623
0.3851294, 0.3179977, 0.2617206
0.3859803, 0.318561, 0.2624357
0.3868313, 0.3191243, 0.2631541
0.3868313, 0.3191243, 0.2638488
0.3868313, 0.3191243, 0.2645435
0.3868313, 0.3191243, 0.2652382
0.3876821, 0.3196876, 0.2659649
0.3876821, 0.3196876, 0.2666613
0.3885331, 0.3202509, 0.267393
0.3885331, 0.3202509, 0.268091
0.389384, 0.3208142, 0.2688276
0.389384, 0.3208142, 0.2695273
0.3902349, 0.3213775, 0.2702689
0.3910858, 0.3219408, 0.2710139
0.3927876, 0.3230675, 0.2718075
0.3944894, 0.324194, 0.2726078
0.3961912, 0.3253206, 0.2734146
0.3970422, 0.325884, 0.2741778
0.398744, 0.3270106, 0.2749963
0.3995949, 0.3275739, 0.2757678
0.4012967, 0.3287005, 0.2765979
0.4021476, 0.3292638, 0.2773777
0.3130497, 0.3080531, 0.2925789
0.3138373, 0.3086797, 0.2932874
0.3138373, 0.3086797, 0.2938843
0.3138373, 0.3086797, 0.2944811
0.3138373, 0.3086797, 0.295078
0.3138373, 0.3086797, 0.2956748
0.3146249, 0.3093063, 0.2963933
0.3146249, 0.3093063, 0.2969918
0.3146249, 0.3093063, 0.2975903
0.3146249, 0.3093063, 0.2981888
0.3154125, 0.3099329, 0.2989156
0.3154125, 0.3099329, 0.2995158
0.3154125, 0.3099329, 0.3001159
0.3154125, 0.3099329, 0.3007161
0.3162, 0.3105595, 0.3014511
0.3162, 0.3105595, 0.3020529
0.3169877, 0.3111861, 0.302793
0.3169877, 0.3111861, 0.3033964
0.3177753, 0.3118127, 0.3041414
0.3177753, 0.3118127, 0.3047466
0.3185629, 0.3124394, 0.3054965
0.3185629, 0.3124394, 0.3061033
0.3193505, 0.3130659, 0.3068582
0.3193505, 0.3130659, 0.3074667
0.3201381, 0.3136926, 0.3082266
0.3209257, 0.3143192, 0.3089898
0.3209257, 0.3143192, 0.3096016
0.3217133, 0.3149458, 0.3103698
0.3225009, 0.3155724, 0.3111413
0.3232885, 0.316199, 0.3119161
0.3232885, 0.316199, 0.3125328
0.3240761, 0.3168256, 0.3133126
0.3221084, 0.3060653, 0.2931371
0.3229101, 0.3066779, 0.2938539
0.3229101, 0.3066779, 0.294459
0.3229101, 0.3066779, 0.2950642
0.3229101, 0.3066779, 0.2956693
0.3229101, 0.3066779, 0.2962745
0.3237118, 0.3072904, 0.2970012
0.3237118, 0.3072904, 0.297608
0.3237118, 0.3072904, 0.2982149
0.3237118, 0.3072904, 0.2988216
0.3237118, 0.3072904, 0.2994285
0.3237118, 0.3072904, 0.3000353
0.3245135, 0.307903, 0.3007736
0.3245135, 0.307903, 0.3013821
0.3245135, 0.307903, 0.3019905
0.3253151, 0.3085155, 0.3027355
0.3253151, 0.3085155, 0.3033456
0.3253151, 0.3085155, 0.3039557
0.3261168, 0.309128, 0.3047073
0.3261168, 0.309128, 0.3053191
0.3269185, 0.3097406, 0.3060757
0.3269185, 0.3097406, 0.3066891
0.3269185, 0.3097406, 0.3073026
0.3277202, 0.3103531, 0.3080658
0.3277202, 0.3103531, 0.3086809
0.3277202, 0.3103531, 0.309296
0.3285218, 0.3109657, 0.3100658
0.3285218, 0.3109657, 0.3106826
0.3293235, 0.3115782, 0.3114574
0.3301252, 0.3121907, 0.3122355
0.3301252, 0.3121907, 0.3128556
0.3309268, 0.3128033, 0.3136387
0.2757393, 0.3100081, 0.2897879
0.2757393, 0.3100081, 0.2903416
0.2764741, 0.3106874, 0.2910103
0.2764741, 0.3106874, 0.2915658
0.2764741, 0.3106874, 0.2921212
0.2764741, 0.3106874, 0.2926766
0.277209, 0.3113668, 0.2933536
0.277209, 0.3113668, 0.2939107
0.277209, 0.3113668, 0.2944677
0.2779438, 0.3120462, 0.2951514
0.2779438, 0.3120462, 0.2957101
0.2786787, 0.3127255, 0.2963987
0.2786787, 0.3127255, 0.2969591
0.2794136, 0.3134049, 0.2976526
0.2794136, 0.3134049, 0.2982147
0.2794136, 0.3134049, 0.2987767
0.2801484, 0.3140843, 0.2994769
0.2808833, 0.3147636, 0.3001805
0.2808833, 0.3147636, 0.3007458
0.2816181, 0.315443, 0.3014543
0.2823529, 0.3161224, 0.3021661
0.2823529, 0.3161224, 0.3027348
0.2823529, 0.3161224, 0.3033035
0.2830878, 0.3168017, 0.3040219
0.2830878, 0.3168017, 0.3045923
0.2838226, 0.3174811, 0.3053157
0.2838226, 0.3174811, 0.3058877
0.3163177, 0.3076134, 0.2928022
0.3163177, 0.3076134, 0.2934007
0.3163177, 0.3076134, 0.2939992
0.3163177, 0.3076134, 0.2945977
0.3163177, 0.3076134, 0.2951963
0.3163177, 0.3076134, 0.2957948
0.3163177, 0.3076134, 0.2963933
0.31711, 0.3082353, 0.2971151
0.31711, 0.3082353, 0.2977152
0.31711, 0.3082353, 0.2983154
0.31711, 0.3082353, 0.2989156
0.3179023, 0.3088573, 0.2996456
0.3179023, 0.3088573, 0.3002475
0.3179023, 0.3088573, 0.3008493
0.3186946, 0.3094792, 0.301586
0.3186946, 0.3094792, 0.3021895
0.3186946, 0.3094792, 0.302793
0.3194869, 0.3101011, 0.3035363
0.3194869, 0.3101011, 0.3041414
0.3202792, 0.310723, 0.3048897
0.3202792, 0.310723, 0.3054965
0.3210715, 0.311345, 0.3062498
0.3218638, 0.3119669, 0.3070064
0.3218638, 0.3119669, 0.3076165
0.3226561, 0.3125888, 0.308378
0.3226561, 0.3125888, 0.3089898
0.3234484, 0.3132107, 0.3097563
0.3234484, 0.3132107, 0.3103698
0.3242407, 0.3138326, 0.3111413
0.3250329, 0.3144546, 0.3119161
0.3250329, 0.3144546, 0.3125328
0.3258252, 0.3150765, 0.3133126
0.3029442, 0.3096733, 0.2919091
0.3029442, 0.3096733, 0.2924943
0.3029442, 0.3096733, 0.2930796
0.3029442, 0.3096733, 0.2936648
0.3037165, 0.3103151, 0.2943684
0.3037165, 0.3103151, 0.2949553
0.3044889, 0.310957, 0.2956637
0.3044889, 0.310957, 0.2962523
0.3052613, 0.3115988, 0.2969658
0.3052613, 0.3115988, 0.297556
0.3060336, 0.3122407, 0.2982745
0.3060336, 0.3122407, 0.2988664
0.306806, 0.3128825, 0.2995898
0.306806, 0.3128825, 0.3001833
0.3075784, 0.3135244, 0.3009117
0.3075784, 0.3135244, 0.3015069
0.3083507, 0.3141662, 0.3022403
0.3083507, 0.3141662, 0.3028371
0.3091231, 0.3148081, 0.3035755
0.3098954, 0.3154499, 0.3043171
0.3098954, 0.3154499, 0.3049173
0.3106678, 0.3160918, 0.3056639
0.3114402, 0.3167336, 0.3064139
0.3122125, 0.3173755, 0.3071671
0.3129849, 0.3180173, 0.3079237
0.3129849, 0.3180173, 0.3085305
0.3137572, 0.3186592, 0.3092921
0.3145296, 0.319301, 0.310057
0.315302, 0.3199429, 0.3108251
0.3160743, 0.3205847, 0.3115966
0.3168467, 0.3212266, 0.3123715
0.3176191, 0.3218684, 0.3131496
0.303358, 0.3092594, 0.2919091
0.303358, 0.3092594, 0.2924943
0.3041315, 0.3099001, 0.2931945
0.3041315, 0.3099001, 0.2937814
0.3041315, 0.3099001, 0.2943684
0.3049051, 0.3105408, 0.2950752
0.3049051, 0.3105408, 0.2956637
0.3056786, 0.3111815, 0.2963756
0.3056786, 0.3111815, 0.2969658
0.3064522, 0.3118221, 0.2976826
0.3064522, 0.3118221, 0.2982745
0.3072257, 0.3124628, 0.2989962
0.3072257, 0.3124628, 0.2995898
0.3079992, 0.3131035, 0.3003165
0.3079992, 0.3131035, 0.3009117
0.3087727, 0.3137442, 0.3016434
0.3087727, 0.3137442, 0.3022403
0.3095463, 0.3143849, 0.302977
0.3095463, 0.3143849, 0.3035755
0.3103198, 0.3150255, 0.3043171
0.3110934, 0.3156662, 0.3050621
0.3118669, 0.3163069, 0.3058104
0.3118669, 0.3163069, 0.3064139
0.3126404, 0.3169475, 0.3071671
0.313414, 0.3175882, 0.3079237
0.3141875, 0.3182289, 0.3086836
0.3141875, 0.3182289, 0.3092921
0.314961, 0.3188696, 0.310057
0.3157346, 0.3195103, 0.3108251
0.3165081, 0.3201509, 0.3115966
0.3172816, 0.3207916, 0.3123715
0.3180552, 0.3214323, 0.3131496
0.3186311, 0.3109569, 0.2496781
0.3186311, 0.3109569, 0.2502833
0.3178411, 0.3103327, 0.2508928
0.3178411, 0.3103327, 0.2514963
0.3178411, 0.3103327, 0.2520998
0.3170512, 0.3097084, 0.2527027
0.3162612, 0.3090841, 0.2533023
0.3162612, 0.3090841, 0.2539025
0.2676858, 0.2911915, 0.2709547
0.2684394, 0.2918521, 0.2715372
0.2684394, 0.2918521, 0.2720611
0.269193, 0.2925127, 0.2726486
0.2699466, 0.2931734, 0.2732394
0.2699466, 0.2931734, 0.2737666
0.2699466, 0.2931734, 0.2742938
0.2699466, 0.2931734, 0.274821
0.2699466, 0.2931734, 0.2753482
0.2699466, 0.2931734, 0.2758755
0.269193, 0.2925127, 0.2763276
0.269193, 0.2925127, 0.2768531
0.269193, 0.2925127, 0.2773787
0.2684394, 0.2918521, 0.2778241
0.2676858, 0.2911915, 0.2782662
0.2669322, 0.2905309, 0.278705
0.2661786, 0.2898703, 0.2791405
0.2661786, 0.2898703, 0.2796594
0.265425, 0.2892097, 0.2800899
0.2646714, 0.2885491, 0.2805171
0.2646714, 0.2885491, 0.2810327
0.2646714, 0.2885491, 0.2815484
0.2646714, 0.2885491, 0.282064
0.2646714, 0.2885491, 0.2825796
0.2646714, 0.2885491, 0.2830952
0.2646714, 0.2885491, 0.2836108
0.2887867, 0.3096886, 0.2879493
0.2887867, 0.3096886, 0.288518
0.2887867, 0.3096886, 0.2890866
0.2887867, 0.3096886, 0.2896553
0.2895404, 0.3103492, 0.290334
0.2920809, 0.3148797, 0.2486446
0.2913308, 0.3142155, 0.2492326
0.2905807, 0.3135514, 0.2503926
0.2898307, 0.3128873, 0.2509723
0.2898307, 0.3128873, 0.2515459
0.2890806, 0.3122232, 0.2521207
0.2890806, 0.3122232, 0.2526927
0.2890806, 0.3122232, 0.2532647
0.2883305, 0.311559, 0.2538328
0.3216817, 0.3064921, 0.2545138
0.3208812, 0.3058783, 0.2551101
0.3208812, 0.3058783, 0.2557119
0.3208812, 0.3058783, 0.2563137
0.3208812, 0.3058783, 0.2569156
0.3208812, 0.3058783, 0.2575174
0.3208812, 0.3058783, 0.2581192
0.3200807, 0.3052646, 0.2587039
0.3200807, 0.3052646, 0.2593041
0.3200807, 0.3052646, 0.2599043
0.3200807, 0.3052646, 0.2605044
0.3200807, 0.3052646, 0.2611046
0.3200807, 0.3052646, 0.2617048
0.3200807, 0.3052646, 0.262305
0.3200807, 0.3052646, 0.2629051
0.3200807, 0.3052646, 0.2635053
0.3200807, 0.3052646, 0.2641055
0.3200807, 0.3052646, 0.2647057
0.3200807, 0.3052646, 0.2653058
0.3200807, 0.3052646, 0.265906
0.3200807, 0.3052646, 0.2665062
0.3200807, 0.3052646, 0.2671064
0.3200807, 0.3052646, 0.2677065
0.3200807, 0.3052646, 0.2683067
0.3200807, 0.3052646, 0.2689069
0.3200807, 0.3052646, 0.2695071
0.3200807, 0.3052646, 0.2701072
0.3200807, 0.3052646, 0.2707074
0.3200807, 0.3052646, 0.2713076
0.3200807, 0.3052646, 0.2719077
0.3200807, 0.3052646, 0.2725079
0.3200807, 0.3052646, 0.2731081
0.4138297, 0.3274812, 0.2785124
0.4146935, 0.3280316, 0.2793087
0.4138297, 0.3274812, 0.2799846
0.4138297, 0.3274812, 0.2807207
0.4129659, 0.3269308, 0.2813916
0.4129659, 0.3269308, 0.2821261
0.4121021, 0.3263804, 0.282792
0.4121021, 0.3263804, 0.2835248
0.4112383, 0.32583, 0.2841858
0.4112383, 0.32583, 0.2849169
0.4112383, 0.32583, 0.2856481
0.4112383, 0.32583, 0.2863792
0.4112383, 0.32583, 0.2871104
0.4121021, 0.3263804, 0.2879217
0.4129659, 0.3269308, 0.2887363
0.4138297, 0.3274812, 0.2895542
0.4138297, 0.3274812, 0.2902904
0.4155573, 0.328582, 0.2912
0.4164211, 0.3291324, 0.2920279
0.4164211, 0.3291324, 0.292769
0.4172849, 0.3296828, 0.2936018
0.4181487, 0.3302332, 0.294438
0.4190125, 0.3307836, 0.2952774
0.4190125, 0.3307836, 0.2960235
0.4198763, 0.3313341, 0.296868
0.4198763, 0.3313341, 0.2976157
0.4198763, 0.3313341, 0.2983634
0.4198763, 0.3313341, 0.2991112
0.4198763, 0.3313341, 0.2998589
0.4198763, 0.3313341, 0.3006066
0.4207401, 0.3318845, 0.3014627
0.4207401, 0.3318845, 0.3022121
0.3188287, 0.322073, 0.313931
0.3196023, 0.3227137, 0.3147158
0.3211493, 0.323995, 0.3156719
0.3219228, 0.3246357, 0.3164649
0.3234699, 0.3259171, 0.3174326
0.325017, 0.3271984, 0.318407
0.3257905, 0.3278391, 0.3192133
0.3265641, 0.3284798, 0.3200229
0.3281111, 0.3297611, 0.3210138
0.3288847, 0.3304018, 0.3218317
0.3288847, 0.3304018, 0.3224717
0.3296582, 0.3310425, 0.3232946
0.3296582, 0.3310425, 0.3239362
0.3304317, 0.3316832, 0.3247641
0.2852807, 0.3103662, 0.2905694
0.2852807, 0.3103662, 0.2911347
0.2852807, 0.3103662, 0.2917001
0.2852807, 0.3103662, 0.2922654
0.2860284, 0.3110327, 0.2929491
0.2860284, 0.3110327, 0.2935161
0.2860284, 0.3110327, 0.2940831
0.2867762, 0.3116991, 0.2947734
0.2867762, 0.3116991, 0.2953421
0.2867762, 0.3116991, 0.2959107
0.2875239, 0.3123656, 0.2966076
0.2875239, 0.3123656, 0.2971779
0.2875239, 0.3123656, 0.2977483
0.2882717, 0.3130321, 0.2984518
0.2882717, 0.3130321, 0.2990238
0.2882717, 0.3130321, 0.2995958
0.2890194, 0.3136985, 0.3003059
0.2890194, 0.3136985, 0.3008796
0.2897671, 0.314365, 0.3015947
0.2897671, 0.314365, 0.30217
0.2905149, 0.3150315, 0.3028901
0.2905149, 0.3150315, 0.3034671
0.2905149, 0.3150315, 0.304044
0.2912626, 0.3156979, 0.3047708
0.2912626, 0.3156979, 0.3053494
0.4009051, 0.3135357, 0.2548512
0.4017771, 0.3140779, 0.2555631
0.4026491, 0.3146201, 0.2562782
0.4035212, 0.3151623, 0.2569966
0.4043931, 0.3157046, 0.2577184
0.4052652, 0.3162467, 0.2584435
0.4061372, 0.3167889, 0.2591718
0.4070092, 0.3173311, 0.2599036
0.4070092, 0.3173311, 0.2606198
0.4070092, 0.3173311, 0.261336
0.4061372, 0.3167889, 0.2620302
0.4061372, 0.3167889, 0.2627447
0.4061372, 0.3167889, 0.2634593
0.4070092, 0.3173311, 0.264201
0.4070092, 0.3173311, 0.2649172
0.4070092, 0.3173311, 0.2656334
0.4078812, 0.3178734, 0.2663817
0.4087532, 0.3184156, 0.2671333
0.4087532, 0.3184156, 0.2678528
0.4096252, 0.3189577, 0.2686094
0.4104972, 0.3194999, 0.2693693
0.4104972, 0.3194999, 0.2700922
0.4113692, 0.3200422, 0.270857
0.4113692, 0.3200422, 0.2715816
0.4122413, 0.3205844, 0.2723514
0.4122413, 0.3205844, 0.2730776
0.4131133, 0.3211266, 0.2738524
0.4139853, 0.3216688, 0.2746305
0.3099695, 0.3139617, 0.249709
0.3099695, 0.3139617, 0.2503076
0.3091948, 0.3133221, 0.2509105
0.3091948, 0.3133221, 0.2515073
0.3084201, 0.3126826, 0.2521053
0.3076454, 0.3120431, 0.2526999
0.3076454, 0.3120431, 0.2532935
0.3068707, 0.3114036, 0.2538832
0.3014477, 0.3069271, 0.2730052
0.3014477, 0.3069271, 0.2735855
0.3014477, 0.3069271, 0.2741658
0.3014477, 0.3069271, 0.2747461
0.3014477, 0.3069271, 0.2753263
0.3014477, 0.3069271, 0.2759066
0.3014477, 0.3069271, 0.2764869
0.3014477, 0.3069271, 0.2770672
0.3014477, 0.3069271, 0.2776475
0.3022224, 0.3075666, 0.2783012
0.3022224, 0.3075666, 0.2788832
0.3022224, 0.3075666, 0.2794651
0.3022224, 0.3075666, 0.2800471
0.3022224, 0.3075666, 0.280629
0.3029971, 0.3082061, 0.2812927
0.3029971, 0.3082061, 0.2818763
0.3029971, 0.3082061, 0.2824599
0.3029971, 0.3082061, 0.2830435
0.3029971, 0.3082061, 0.2836271
0.3029971, 0.3082061, 0.2842107
0.3029971, 0.3082061, 0.2847943
0.3029971, 0.3082061, 0.2853779
0.3029971, 0.3082061, 0.2859615
0.3029971, 0.3082061, 0.2865451
0.3037719, 0.3088456, 0.287227
0.3037719, 0.3088456, 0.2878123
0.3037719, 0.3088456, 0.2883976
0.3037719, 0.3088456, 0.2889828
0.3037719, 0.3088456, 0.2895681
0.3037719, 0.3088456, 0.2901533
0.3037719, 0.3088456, 0.2907386
0.3045465, 0.3094851, 0.2914338
0.2814524, 0.3099518, 0.2902344
0.2814524, 0.3099518, 0.2907948
0.2821955, 0.3106229, 0.2914702
0.2821955, 0.3106229, 0.2920322
0.2821955, 0.3106229, 0.2925943
0.2821955, 0.3106229, 0.2931563
0.2829385, 0.3112941, 0.2938399
0.2829385, 0.3112941, 0.2944036
0.2829385, 0.3112941, 0.2949673
0.2836816, 0.3119653, 0.2956576
0.2836816, 0.3119653, 0.296223
0.2844247, 0.3126364, 0.2969182
0.2844247, 0.3126364, 0.2974852
0.2844247, 0.3126364, 0.2980522
0.2851677, 0.3133076, 0.2987541
0.2851677, 0.3133076, 0.2993228
0.2859108, 0.3139787, 0.3000296
0.2859108, 0.3139787, 0.3005999
0.2866538, 0.3146499, 0.3013117
0.2866538, 0.3146499, 0.3018837
0.2873969, 0.3153211, 0.3026005
0.2873969, 0.3153211, 0.3031742
0.2881399, 0.3159922, 0.3038959
0.2881399, 0.3159922, 0.3044712
0.2881399, 0.3159922, 0.3050465
0.288883, 0.3166634, 0.3057749
0.2945358, 0.3124247, 0.2503804
0.2945358, 0.3124247, 0.250959
0.2945358, 0.3124247, 0.2515377
0.2945358, 0.3124247, 0.2521163
0.2937787, 0.3117677, 0.2526944
0.2937787, 0.3117677, 0.2532713
0.2937787, 0.3117677, 0.2538483
0.306096, 0.3107641, 0.2544695
0.306096, 0.3107641, 0.2550597
0.3053213, 0.3101246, 0.2556411
0.3053213, 0.3101246, 0.2562297
0.3045465, 0.3094851, 0.2568061
0.3045465, 0.3094851, 0.257393
0.3037719, 0.3088456, 0.2579644
0.3037719, 0.3088456, 0.2585497
0.3037719, 0.3088456, 0.2591349
0.3037719, 0.3088456, 0.2597202
0.3037719, 0.3088456, 0.2603054
0.3037719, 0.3088456, 0.2608907
0.3037719, 0.3088456, 0.2614759
0.3029971, 0.3082061, 0.2620341
0.3029971, 0.3082061, 0.2626177
0.3029971, 0.3082061, 0.2632013
0.3029971, 0.3082061, 0.2637849
0.3022224, 0.3075666, 0.2643348
0.3022224, 0.3075666, 0.2649167
0.3022224, 0.3075666, 0.2654986
0.3022224, 0.3075666, 0.2660806
0.3022224, 0.3075666, 0.2666625
0.3022224, 0.3075666, 0.2672445
0.3014477, 0.3069271, 0.2677827
0.3014477, 0.3069271, 0.268363
0.3014477, 0.3069271, 0.2689433
0.3014477, 0.3069271, 0.2695236
0.3014477, 0.3069271, 0.2701038
0.3014477, 0.3069271, 0.2706841
0.3014477, 0.3069271, 0.2712644
0.3014477, 0.3069271, 0.2718447
0.3014477, 0.3069271, 0.2724249
0.365696, 0.3105611, 0.2547019
0.365696, 0.3105611, 0.2553617
0.3665387, 0.3111326, 0.2560304
0.3665387, 0.3111326, 0.2566919
0.3665387, 0.3111326, 0.2573535
0.3673814, 0.3117041, 0.2580288
0.3682241, 0.3122756, 0.2587075
0.3682241, 0.3122756, 0.2593723
0.3690668, 0.3128471, 0.2600559
0.3699095, 0.3134186, 0.2607429
0.3707522, 0.3139901, 0.2614331
0.3707522, 0.3139901, 0.2621029
0.3715949, 0.3145617, 0.2627982
0.3724376, 0.3151332, 0.2634967
0.3724376, 0.3151332, 0.2641698
0.3732803, 0.3157046, 0.2648734
0.374123, 0.3162762, 0.2655802
0.374123, 0.3162762, 0.2662567
0.3749657, 0.3168477, 0.2669685
0.3749657, 0.3168477, 0.2676466
0.3758084, 0.3174192, 0.2683634
0.3758084, 0.3174192, 0.2690431
0.3758084, 0.3174192, 0.2697228
0.3758084, 0.3174192, 0.2704026
0.3766511, 0.3179907, 0.2711277
0.3766511, 0.3179907, 0.2718091
