0.3759705, 0.3205255, 0.3222079
0.3753546, 0.3198965, 0.3214262
0.3747202, 0.3198965, 0.3214262
0.3740857, 0.3198965, 0.3214262
0.3734767, 0.3192676, 0.3206445
0.3728439, 0.3192676, 0.3206445
0.3722111, 0.3192676, 0.3206445
0.3716088, 0.3186386, 0.3198628
0.3709777, 0.3186386, 0.3198628
0.3703466, 0.3186386, 0.3198628
0.3697155, 0.3186386, 0.3198628
0.3691216, 0.3180096, 0.3190811
0.3684922, 0.3180096, 0.3190811
0.3678629, 0.3180096, 0.3190811
0.3672335, 0.3180096, 0.3190811
0.366648, 0.3173806, 0.3182994
0.3660203, 0.3173806, 0.3182994
0.3653926, 0.3173806, 0.3182994
0.3647649, 0.3173806, 0.3182994
0.3641879, 0.3167517, 0.3175176
0.3634571, 0.3148138, 0.3221138
0.3628276, 0.3148138, 0.3221138
0.3621425, 0.3154342, 0.3229037
0.3615114, 0.3154342, 0.3229037
0.3608803, 0.3154342, 0.3229037
0.36031, 0.3148138, 0.3221138
0.3596807, 0.3148138, 0.3221138
0.3590512, 0.3148138, 0.3221138
0.3584877, 0.3141933, 0.321324
0.35786, 0.3141933, 0.321324
0.3572323, 0.3141933, 0.321324
0.3566756, 0.3135729, 0.3205341
0.3560495, 0.3135729, 0.3205341
0.3554978, 0.3129525, 0.3197443
0.3836091, 0.3256683, 0.3214634
0.3829679, 0.3256683, 0.3214634
0.3823266, 0.3256683, 0.3214634
0.3816854, 0.3256683, 0.3214634
0.3810442, 0.3256683, 0.3214634
0.3804098, 0.3250307, 0.3206898
0.3797703, 0.3250307, 0.3206898
0.3791308, 0.3250307, 0.3206898
0.3784913, 0.3250307, 0.3206898
0.3778653, 0.3243932, 0.3199162
0.3772275, 0.3243932, 0.3199162
0.3765897, 0.3243932, 0.3199162
0.3759518, 0.3243932, 0.3199162
0.3753343, 0.3237557, 0.3191427
0.3746982, 0.3237557, 0.3191427
0.3740857, 0.3231181, 0.3183691
0.3734513, 0.3231181, 0.3183691
0.3728168, 0.3231181, 0.3183691
0.3722111, 0.3224806, 0.3175955
0.3715783, 0.3224806, 0.3175955
0.3709777, 0.321843, 0.3168219
0.3703466, 0.321843, 0.3168219
0.369751, 0.3212055, 0.3160483
0.3691216, 0.3212055, 0.3160483
0.3684922, 0.3212055, 0.3160483
0.3679034, 0.3205679, 0.3152747
0.3672757, 0.3205679, 0.3152747
0.366648, 0.3205679, 0.3152747
0.3660659, 0.3199304, 0.3145011
0.3654399, 0.3199304, 0.3145011
0.3648139, 0.3199304, 0.3145011
0.3642386, 0.3192928, 0.3137276
0.3992929, 0.3301311, 0.3268785
0.3986398, 0.3301311, 0.3268785
0.3979868, 0.3301311, 0.3268785
0.3973338, 0.3301311, 0.3268785
0.3966808, 0.3301311, 0.3268785
0.3960277, 0.3301311, 0.3268785
0.3953427, 0.3294936, 0.326105
0.3946914, 0.3294936, 0.326105
0.3940401, 0.3294936, 0.326105
0.3933618, 0.3288561, 0.3253314
0.3927122, 0.3288561, 0.3253314
0.392039, 0.3282185, 0.3245578
0.391391, 0.3282185, 0.3245578
0.3907229, 0.327581, 0.3237842
0.3900766, 0.327581, 0.3237842
0.3894303, 0.327581, 0.3237842
0.388769, 0.3269434, 0.3230106
0.3881244, 0.3269434, 0.3230106
0.3874798, 0.3269434, 0.3230106
0.3868252, 0.3263059, 0.322237
0.3861823, 0.3263059, 0.322237
0.3855394, 0.3263059, 0.322237
0.3848965, 0.3263059, 0.322237
0.3842536, 0.3263059, 0.322237
0.3636142, 0.3192928, 0.3137276
0.3629899, 0.3192928, 0.3137276
0.3624213, 0.3186553, 0.312954
0.3617987, 0.3186553, 0.312954
0.3612352, 0.3180178, 0.3121804
0.3606142, 0.3180178, 0.3121804
0.3600557, 0.3173802, 0.3114068
0.3594365, 0.3173802, 0.3114068
0.3588831, 0.3167426, 0.3106332
0.3583331, 0.3161051, 0.3098596
0.3577172, 0.3161051, 0.3098596
0.3571723, 0.3154675, 0.309086
0.3566307, 0.31483, 0.3083124
0.3560181, 0.31483, 0.3083124
0.3554816, 0.3141924, 0.3075389
0.3549485, 0.3135549, 0.3067653
0.3543393, 0.3135549, 0.3067653
0.3538113, 0.3129174, 0.3059917
0.3532866, 0.3122798, 0.3052181
0.3526808, 0.3122798, 0.3052181
0.3521612, 0.3116422, 0.3044445
0.3515571, 0.3116422, 0.3044445
0.3510425, 0.3110047, 0.3036709
0.3504401, 0.3110047, 0.3036709
0.3499306, 0.3103671, 0.3028973
0.3493299, 0.3103671, 0.3028973
0.3488254, 0.3097296, 0.3021237
0.3482264, 0.3097296, 0.3021237
0.3476274, 0.3097296, 0.3021237
0.3471297, 0.309092, 0.3013501
0.3465323, 0.309092, 0.3013501
0.3460397, 0.3084545, 0.3005766
0.2606782, 0.2945811, 0.2751411
0.2601298, 0.2945811, 0.2751411
0.2595814, 0.2945811, 0.2751411
0.259033, 0.2945811, 0.2751411
0.2584846, 0.2945811, 0.2751411
0.2579362, 0.2945811, 0.2751411
0.2573878, 0.2945811, 0.2751411
0.2568393, 0.2945811, 0.2751411
0.256291, 0.2945811, 0.2751411
0.2557425, 0.2945811, 0.2751411
0.2551941, 0.2945811, 0.2751411
0.2546457, 0.2945811, 0.2751411
0.254494, 0.2939314, 0.2743791
0.2539473, 0.2939314, 0.2743791
0.2534005, 0.2939314, 0.2743791
0.2528538, 0.2939314, 0.2743791
0.2523071, 0.2939314, 0.2743791
0.2517604, 0.2939314, 0.2743791
0.2512137, 0.2939314, 0.2743791
0.2506669, 0.2939314, 0.2743791
0.3708813, 0.3159111, 0.3265869
0.3702451, 0.3159111, 0.3265869
0.369609, 0.3159111, 0.3265869
0.36901, 0.3152943, 0.3257936
0.3683756, 0.3152943, 0.3257936
0.3677411, 0.3152943, 0.3257936
0.3671066, 0.3152943, 0.3257936
0.3665161, 0.3146776, 0.3250003
0.2698575, 0.2910778, 0.2812229
0.2693057, 0.2910778, 0.2812229
0.2687539, 0.2910778, 0.2812229
0.2682021, 0.2910778, 0.2812229
0.2676504, 0.2910778, 0.2812229
0.2670986, 0.2910778, 0.2812229
0.2665468, 0.2910778, 0.2812229
0.2656372, 0.2917129, 0.2819988
0.2650837, 0.2917129, 0.2819988
0.2645303, 0.2917129, 0.2819988
0.2639768, 0.2917129, 0.2819988
0.2634234, 0.2917129, 0.2819988
0.2628699, 0.2917129, 0.2819988
0.3454441, 0.3080224, 0.3009866
0.3448484, 0.3080224, 0.3009866
0.3442527, 0.3080224, 0.3009866
0.3437685, 0.3073861, 0.3002118
0.3431746, 0.3073861, 0.3002118
0.3425806, 0.3073861, 0.3002118
0.3419867, 0.3073861, 0.3002118
0.3415109, 0.3067498, 0.2994371
0.3409186, 0.3067498, 0.2994371
0.3403263, 0.3067498, 0.2994371
0.339734, 0.3067498, 0.2994371
0.3391418, 0.3067498, 0.2994371
0.3385495, 0.3067498, 0.2994371
0.3380856, 0.3061135, 0.2986623
0.337495, 0.3061135, 0.2986623
0.3369044, 0.3061135, 0.2986623
0.3363138, 0.3061135, 0.2986623
0.3357232, 0.3061135, 0.2986623
0.3351326, 0.3061135, 0.2986623
0.334542, 0.3061135, 0.2986623
0.3339514, 0.3061135, 0.2986623
0.3333608, 0.3061135, 0.2986623
0.3327702, 0.3061135, 0.2986623
0.3321797, 0.3061135, 0.2986623
0.3315891, 0.3061135, 0.2986623
0.3309985, 0.3061135, 0.2986623
0.3304079, 0.3061135, 0.2986623
0.3298173, 0.3061135, 0.2986623
0.3292267, 0.3061135, 0.2986623
0.3286361, 0.3061135, 0.2986623
0.3280455, 0.3061135, 0.2986623
0.3274549, 0.3061135, 0.2986623
0.3454441, 0.3084545, 0.3005766
0.3449565, 0.307817, 0.299803
0.3443625, 0.307817, 0.299803
0.3437685, 0.307817, 0.299803
0.3432877, 0.3071794, 0.2990294
0.3426954, 0.3071794, 0.2990294
0.3421032, 0.3071794, 0.2990294
0.3415109, 0.3071794, 0.2990294
0.3410385, 0.3065419, 0.2982558
0.3404479, 0.3065419, 0.2982558
0.3398573, 0.3065419, 0.2982558
0.3392667, 0.3065419, 0.2982558
0.3386762, 0.3065419, 0.2982558
0.3380856, 0.3065419, 0.2982558
0.337495, 0.3065419, 0.2982558
0.3370361, 0.3059043, 0.2974822
0.3364472, 0.3059043, 0.2974822
0.3358583, 0.3059043, 0.2974822
0.3352694, 0.3059043, 0.2974822
0.3346805, 0.3059043, 0.2974822
0.3340916, 0.3059043, 0.2974822
0.3335027, 0.3059043, 0.2974822
0.3329138, 0.3059043, 0.2974822
0.3323249, 0.3059043, 0.2974822
0.331736, 0.3059043, 0.2974822
0.331147, 0.3059043, 0.2974822
0.3305582, 0.3059043, 0.2974822
0.3299692, 0.3059043, 0.2974822
0.3293803, 0.3059043, 0.2974822
0.3286361, 0.3065419, 0.2982558
0.3280455, 0.3065419, 0.2982558
0.3274549, 0.3065419, 0.2982558
0.326704, 0.3058905, 0.3002525
0.3261117, 0.3058905, 0.3002525
0.3986398, 0.3306048, 0.326429
0.3979868, 0.3306048, 0.326429
0.3973338, 0.3306048, 0.326429
0.3966808, 0.3306048, 0.326429
0.3960277, 0.3306048, 0.326429
0.3953427, 0.329966, 0.3256566
0.3946914, 0.329966, 0.3256566
0.3940401, 0.329966, 0.3256566
0.3933618, 0.3293273, 0.3248842
0.3927122, 0.3293273, 0.3248842
0.3920625, 0.3293273, 0.3248842
0.391391, 0.3286885, 0.3241118
0.390743, 0.3286885, 0.3241118
0.3900766, 0.3280497, 0.3233393
0.3894303, 0.3280497, 0.3233393
0.3887841, 0.3280497, 0.3233393
0.3881244, 0.327411, 0.3225669
0.3874798, 0.327411, 0.3225669
0.3868352, 0.327411, 0.3225669
0.3861906, 0.327411, 0.3225669
0.3855394, 0.3267722, 0.3217945
0.3848965, 0.3267722, 0.3217945
0.3842536, 0.3267722, 0.3217945
0.3836107, 0.3267722, 0.3217945
0.3829679, 0.3261334, 0.3210221
0.3823266, 0.3261334, 0.3210221
0.3816854, 0.3261334, 0.3210221
0.3810442, 0.3261334, 0.3210221
0.380403, 0.3261334, 0.3210221
0.3797703, 0.3254946, 0.3202496
0.3791308, 0.3254946, 0.3202496
0.3784913, 0.3254946, 0.3202496
0.3778518, 0.3254946, 0.3202496
0.3772275, 0.3248559, 0.3194772
0.3765897, 0.3248559, 0.3194772
0.3759518, 0.3248559, 0.3194772
0.3753343, 0.3242171, 0.3187048
0.3746982, 0.3242171, 0.3187048
0.3740857, 0.3235783, 0.3179323
0.3734513, 0.3235783, 0.3179323
0.3728168, 0.3235783, 0.3179323
0.3722111, 0.3229396, 0.3171599
0.3715783, 0.3229396, 0.3171599
0.3709777, 0.3223008, 0.3163875
0.3703466, 0.3223008, 0.3163875
0.369751, 0.321662, 0.3156151
0.3691216, 0.321662, 0.3156151
0.3684922, 0.321662, 0.3156151
0.3679034, 0.3210233, 0.3148426
0.3672757, 0.3210233, 0.3148426
0.366648, 0.3210233, 0.3148426
0.3660659, 0.3203845, 0.3140702
0.3654399, 0.3203845, 0.3140702
0.3648139, 0.3203845, 0.3140702
0.3642386, 0.3197457, 0.3132978
0.3452313, 0.3084261, 0.3033608
0.3447403, 0.3077922, 0.3025837
0.344143, 0.3077922, 0.3025837
0.3435456, 0.3077922, 0.3025837
0.3430614, 0.3071583, 0.3018066
0.3424658, 0.3071583, 0.3018066
0.3418701, 0.3071583, 0.3018066
0.3412745, 0.3071583, 0.3018066
0.3406788, 0.3071583, 0.3018066
0.3402047, 0.3065244, 0.3010296
0.3396108, 0.3065244, 0.3010296
0.3390168, 0.3065244, 0.3010296
0.3384229, 0.3065244, 0.3010296
0.3378289, 0.3065244, 0.3010296
0.3372349, 0.3065244, 0.3010296
0.336641, 0.3065244, 0.3010296
0.336047, 0.3065244, 0.3010296
0.335453, 0.3065244, 0.3010296
0.3348591, 0.3065244, 0.3010296
0.3342651, 0.3065244, 0.3010296
0.3336712, 0.3065244, 0.3010296
0.333219, 0.3058905, 0.3002525
0.3326267, 0.3058905, 0.3002525
0.3320344, 0.3058905, 0.3002525
0.3314422, 0.3058905, 0.3002525
0.3308499, 0.3058905, 0.3002525
0.3302576, 0.3058905, 0.3002525
0.3296653, 0.3058905, 0.3002525
0.3290731, 0.3058905, 0.3002525
0.3284808, 0.3058905, 0.3002525
0.3278885, 0.3058905, 0.3002525
0.3272962, 0.3058905, 0.3002525
0.3810339, 0.3316191, 0.3185736
0.3803893, 0.3316191, 0.3185736
0.3797447, 0.3316191, 0.3185736
0.3791104, 0.3309693, 0.3178116
0.3784675, 0.3309693, 0.3178116
0.3778246, 0.3309693, 0.3178116
0.3771969, 0.3303195, 0.3170496
0.3765557, 0.3303195, 0.3170496
0.3759145, 0.3303195, 0.3170496
0.3752733, 0.3303195, 0.3170496
0.3746541, 0.3296697, 0.3162876
0.3740146, 0.3296697, 0.3162876
0.3733751, 0.3296697, 0.3162876
0.3727626, 0.3290199, 0.3155257
0.3721248, 0.3290199, 0.3155257
0.3715174, 0.3283701, 0.3147637
0.3708813, 0.3283701, 0.3147637
0.370279, 0.3277203, 0.3140017
0.36968, 0.3270706, 0.3132398
0.3690844, 0.3264208, 0.3124778
0.3684534, 0.3264208, 0.3124778
0.3678629, 0.325771, 0.3117158
0.3672335, 0.325771, 0.3117158
0.366648, 0.3251212, 0.3109538
0.3660659, 0.3244714, 0.3101919
0.3654872, 0.3238216, 0.3094299
0.3649119, 0.3231718, 0.3086679
0.36434, 0.322522, 0.307906
0.3456568, 0.3084683, 0.2978063
0.3451726, 0.3078271, 0.2970362
0.3445821, 0.3078271, 0.2970362
0.3439915, 0.3078271, 0.2970362
0.343514, 0.3071858, 0.2962661
0.3429251, 0.3071858, 0.2962661
0.3423362, 0.3071858, 0.2962661
0.3417473, 0.3071858, 0.2962661
0.3412783, 0.3065446, 0.295496
0.3406911, 0.3065446, 0.295496
0.3401039, 0.3065446, 0.295496
0.3395166, 0.3065446, 0.295496
0.3389294, 0.3065446, 0.295496
0.3384705, 0.3059034, 0.2947259
0.337885, 0.3059034, 0.2947259
0.3372995, 0.3059034, 0.2947259
0.3367139, 0.3059034, 0.2947259
0.3361284, 0.3059034, 0.2947259
0.3355429, 0.3059034, 0.2947259
0.3349574, 0.3059034, 0.2947259
0.3343718, 0.3059034, 0.2947259
0.3337863, 0.3059034, 0.2947259
0.3332008, 0.3059034, 0.2947259
0.3326153, 0.3059034, 0.2947259
0.3320297, 0.3059034, 0.2947259
0.3314442, 0.3059034, 0.2947259
0.3308587, 0.3059034, 0.2947259
0.3302732, 0.3059034, 0.2947259
0.329534, 0.3065446, 0.295496
0.3289468, 0.3065446, 0.295496
0.3283595, 0.3065446, 0.295496
0.3277723, 0.3065446, 0.295496
0.3636142, 0.3179342, 0.3150168
0.3629899, 0.3179342, 0.3150168
0.3623655, 0.3179342, 0.3150168
0.3617987, 0.3173003, 0.3142398
0.361176, 0.3173003, 0.3142398
0.3605534, 0.3173003, 0.3142398
0.3599932, 0.3166665, 0.3134627
0.3593723, 0.3166665, 0.3134627
0.3588172, 0.3160326, 0.3126856
0.3581979, 0.3160326, 0.3126856
0.3576479, 0.3153987, 0.3119086
0.3570303, 0.3153987, 0.3119086
0.3564854, 0.3147648, 0.3111315
0.3559438, 0.3141309, 0.3103544
0.3553296, 0.3141309, 0.3103544
0.3547931, 0.313497, 0.3095773
0.3541806, 0.313497, 0.3095773
0.3536491, 0.3128632, 0.3088003
0.353121, 0.3122293, 0.3080232
0.3525119, 0.3122293, 0.3080232
0.3519889, 0.3115954, 0.3072461
0.3513814, 0.3115954, 0.3072461
0.3508635, 0.3109615, 0.3064691
0.3502577, 0.3109615, 0.3064691
0.3497448, 0.3103277, 0.305692
0.3491407, 0.3103277, 0.305692
0.3486329, 0.3096938, 0.3049149
0.3480305, 0.3096938, 0.3049149
0.3475277, 0.3090599, 0.3041378
0.346927, 0.3090599, 0.3041378
0.3463263, 0.3090599, 0.3041378
0.3458303, 0.3084261, 0.3033608
0.2874563, 0.3142888, 0.2991758
0.2868556, 0.3142888, 0.2991758
0.2865266, 0.3136403, 0.2984127
0.2862011, 0.3129917, 0.2976495
0.2856037, 0.3129917, 0.2976495
0.2852832, 0.3123432, 0.2968864
0.2846875, 0.3123432, 0.2968864
0.3635094, 0.3169253, 0.3187314
0.3628817, 0.3169253, 0.3187314
0.3623098, 0.3162976, 0.3179486
0.3616838, 0.3162976, 0.3179486
0.3610577, 0.3162976, 0.3179486
0.3604317, 0.3162976, 0.3179486
0.3598682, 0.3156698, 0.3171657
0.3592439, 0.3156698, 0.3171657
0.3586195, 0.3156698, 0.3171657
0.3580628, 0.315042, 0.3163828
0.3574401, 0.315042, 0.3163828
0.3568884, 0.3144143, 0.3155999
0.3562675, 0.3144143, 0.3155999
0.3557208, 0.3137865, 0.314817
0.3551016, 0.3137865, 0.314817
0.35456, 0.3131588, 0.3140342
0.3539424, 0.3131588, 0.3140342
0.3533248, 0.3131588, 0.3140342
0.35279, 0.312531, 0.3132513
0.3521741, 0.312531, 0.3132513
0.3516443, 0.3119033, 0.3124684
0.3510301, 0.3119033, 0.3124684
0.3505054, 0.3112755, 0.3116855
0.3498929, 0.3112755, 0.3116855
0.3493733, 0.3106478, 0.3109027
0.3487624, 0.3106478, 0.3109027
0.3482478, 0.31002, 0.3101198
0.3476387, 0.31002, 0.3101198
0.3471292, 0.3093922, 0.3093369
0.346623, 0.3087645, 0.308554
0.3460172, 0.3087645, 0.308554
0.3455162, 0.3081367, 0.3077711
0.345976, 0.3091003, 0.2930707
0.3453888, 0.3091003, 0.2930707
0.3448016, 0.3091003, 0.2930707
0.3442143, 0.3091003, 0.2930707
0.3437403, 0.3084517, 0.2923076
0.3431548, 0.3084517, 0.2923076
0.3425692, 0.3084517, 0.2923076
0.3421019, 0.3078032, 0.2915444
0.3415181, 0.3078032, 0.2915444
0.3409342, 0.3078032, 0.2915444
0.3403504, 0.3078032, 0.2915444
0.3397665, 0.3078032, 0.2915444
0.3393093, 0.3071547, 0.2907813
0.3387272, 0.3071547, 0.2907813
0.338145, 0.3071547, 0.2907813
0.3375629, 0.3071547, 0.2907813
0.3371141, 0.3065061, 0.2900182
0.3365337, 0.3065061, 0.2900182
0.3359532, 0.3065061, 0.2900182
0.3353727, 0.3065061, 0.2900182
0.3347923, 0.3065061, 0.2900182
0.3342118, 0.3065061, 0.2900182
0.3336313, 0.3065061, 0.2900182
0.3330508, 0.3065061, 0.2900182
0.3324704, 0.3065061, 0.2900182
0.3318899, 0.3065061, 0.2900182
0.3313095, 0.3065061, 0.2900182
0.330729, 0.3065061, 0.2900182
0.3301485, 0.3065061, 0.2900182
0.3295681, 0.3065061, 0.2900182
0.3288306, 0.3071547, 0.2907813
0.3282484, 0.3071547, 0.2907813
0.2736067, 0.2943614, 0.280864
0.2730516, 0.2943614, 0.280864
0.2728323, 0.2937202, 0.2800939
0.2719412, 0.2943614, 0.280864
0.2717254, 0.2937202, 0.2800939
0.2711719, 0.2937202, 0.2800939
0.2706184, 0.2937202, 0.2800939
0.2700649, 0.2937202, 0.2800939
0.2695115, 0.2937202, 0.2800939
0.268958, 0.2937202, 0.2800939
0.2684045, 0.2937202, 0.2800939
0.2678511, 0.2937202, 0.2800939
0.2672976, 0.2937202, 0.2800939
0.2667441, 0.2937202, 0.2800939
0.2661907, 0.2937202, 0.2800939
0.2656372, 0.2937202, 0.2800939
0.2650837, 0.2937202, 0.2800939
0.2645303, 0.2937202, 0.2800939
0.2639768, 0.2937202, 0.2800939
0.2634234, 0.2937202, 0.2800939
0.2628699, 0.2937202, 0.2800939
0.2623164, 0.2937202, 0.2800939
0.2617629, 0.2937202, 0.2800939
0.2612095, 0.2937202, 0.2800939
0.260656, 0.2937202, 0.2800939
0.2601025, 0.2937202, 0.2800939
0.3449121, 0.3081367, 0.3077711
0.3444161, 0.307509, 0.3069882
0.3438137, 0.307509, 0.3069882
0.3433227, 0.3068812, 0.3062054
0.342722, 0.3068812, 0.3062054
0.3421213, 0.3068812, 0.3062054
0.3416371, 0.3062535, 0.3054225
0.3410381, 0.3062535, 0.3054225
0.3404391, 0.3062535, 0.3054225
0.33984, 0.3062535, 0.3054225
0.339241, 0.3062535, 0.3054225
0.338642, 0.3062535, 0.3054225
0.3380429, 0.3062535, 0.3054225
0.3374439, 0.3062535, 0.3054225
0.3368449, 0.3062535, 0.3054225
0.3362459, 0.3062535, 0.3054225
0.3356468, 0.3062535, 0.3054225
0.3350478, 0.3062535, 0.3054225
0.3344488, 0.3062535, 0.3054225
0.3268643, 0.3061135, 0.2986623
0.3262737, 0.3061135, 0.2986623
0.3256832, 0.3061135, 0.2986623
0.3250926, 0.3061135, 0.2986623
0.324502, 0.3061135, 0.2986623
0.3239114, 0.3061135, 0.2986623
0.3233208, 0.3061135, 0.2986623
0.2923154, 0.3161629, 0.3070475
0.2917029, 0.3161629, 0.3070475
0.2910904, 0.3161629, 0.3070475
0.2904778, 0.3161629, 0.3070475
0.2896087, 0.3168041, 0.3078176
0.2717254, 0.2921143, 0.2816179
0.2711719, 0.2921143, 0.2816179
0.2706184, 0.2921143, 0.2816179
0.2700649, 0.2921143, 0.2816179
0.2698575, 0.291478, 0.2808431
0.268958, 0.2921143, 0.2816179
0.2684045, 0.2921143, 0.2816179
0.2682021, 0.291478, 0.2808431
0.2676504, 0.291478, 0.2808431
0.2670986, 0.291478, 0.2808431
0.2665468, 0.291478, 0.2808431
0.2656372, 0.2921143, 0.2816179
0.2650837, 0.2921143, 0.2816179
0.2645303, 0.2921143, 0.2816179
0.2639768, 0.2921143, 0.2816179
0.2634234, 0.2921143, 0.2816179
0.2628699, 0.2921143, 0.2816179
0.2623164, 0.2921143, 0.2816179
0.2617629, 0.2921143, 0.2816179
0.2612095, 0.2921143, 0.2816179
0.260656, 0.2921143, 0.2816179
0.2601025, 0.2921143, 0.2816179
0.2728323, 0.2925158, 0.2812369
0.2722788, 0.2925158, 0.2812369
0.2717254, 0.2925158, 0.2812369
0.2711719, 0.2925158, 0.2812369
0.2706184, 0.2925158, 0.2812369
0.2700649, 0.2925158, 0.2812369
0.2695115, 0.2925158, 0.2812369
0.268958, 0.2925158, 0.2812369
0.2684045, 0.2925158, 0.2812369
0.2678511, 0.2925158, 0.2812369
0.2672976, 0.2925158, 0.2812369
0.2667441, 0.2925158, 0.2812369
0.2661907, 0.2925158, 0.2812369
0.2656372, 0.2925158, 0.2812369
0.2650837, 0.2925158, 0.2812369
0.2645303, 0.2925158, 0.2812369
0.2639768, 0.2925158, 0.2812369
0.2634234, 0.2925158, 0.2812369
0.2628699, 0.2925158, 0.2812369
0.2623164, 0.2925158, 0.2812369
0.2617629, 0.2925158, 0.2812369
0.2612095, 0.2925158, 0.2812369
0.260656, 0.2925158, 0.2812369
0.2601025, 0.2925158, 0.2812369
0.3271851, 0.3065446, 0.295496
0.3265979, 0.3065446, 0.295496
0.3260107, 0.3065446, 0.295496
0.325258, 0.3071858, 0.2962661
0.3248363, 0.3065446, 0.295496
0.3240802, 0.3071858, 0.2962661
0.3234913, 0.3071858, 0.2962661
0.3229024, 0.3071858, 0.2962661
0.3223135, 0.3071858, 0.2962661
0.3217246, 0.3071858, 0.2962661
0.3211357, 0.3071858, 0.2962661
0.3203678, 0.3078271, 0.2970362
0.3197773, 0.3078271, 0.2970362
0.3191867, 0.3078271, 0.2970362
0.3635094, 0.31647, 0.3191635
0.3628817, 0.31647, 0.3191635
0.362254, 0.31647, 0.3191635
0.3616263, 0.31647, 0.3191635
0.3609986, 0.31647, 0.3191635
0.3604317, 0.3158435, 0.3183795
0.3598057, 0.3158435, 0.3183795
0.3591796, 0.3158435, 0.3183795
0.3586195, 0.3152169, 0.3175955
0.3579952, 0.3152169, 0.3175955
0.3574401, 0.3145904, 0.3168114
0.3568175, 0.3145904, 0.3168114
0.3562675, 0.3139639, 0.3160274
0.3556465, 0.3139639, 0.3160274
0.3551016, 0.3133373, 0.3152433
0.3544823, 0.3133373, 0.3152433
0.353863, 0.3133373, 0.3152433
0.3533248, 0.3127108, 0.3144593
0.3527072, 0.3127108, 0.3144593
0.3520896, 0.3127108, 0.3144593
0.3515582, 0.3120843, 0.3136752
0.3509423, 0.3120843, 0.3136752
0.3504159, 0.3114577, 0.3128912
0.3498929, 0.3108312, 0.3121071
0.3492804, 0.3108312, 0.3121071
0.3487624, 0.3102047, 0.3113231
0.3481516, 0.3102047, 0.3113231
0.3476387, 0.3095782, 0.3105391
0.3470295, 0.3095782, 0.3105391
0.3465217, 0.3089516, 0.309755
0.3460172, 0.3083251, 0.308971
0.3454115, 0.3083251, 0.308971
0.2348121, 0.292345, 0.2758845
0.2342654, 0.292345, 0.2758845
0.2337187, 0.292345, 0.2758845
0.2755996, 0.296129, 0.277808
0.2750461, 0.296129, 0.277808
0.2744927, 0.296129, 0.277808
0.2739392, 0.296129, 0.277808
0.2733858, 0.296129, 0.277808
0.2728323, 0.296129, 0.277808
0.2722788, 0.296129, 0.277808
0.2717254, 0.296129, 0.277808
0.2711719, 0.296129, 0.277808
0.2706184, 0.296129, 0.277808
0.2700649, 0.296129, 0.277808
0.2695115, 0.296129, 0.277808
0.268958, 0.296129, 0.277808
0.2684045, 0.296129, 0.277808
0.2678511, 0.296129, 0.277808
0.2676504, 0.2954805, 0.2770449
0.2670986, 0.2954805, 0.2770449
0.2665468, 0.2954805, 0.2770449
0.265995, 0.2954805, 0.2770449
0.2654432, 0.2954805, 0.2770449
0.2648914, 0.2954805, 0.2770449
0.2643397, 0.2954805, 0.2770449
0.2637879, 0.2954805, 0.2770449
0.2632361, 0.2954805, 0.2770449
0.2630523, 0.2948319, 0.2762817
0.2625022, 0.2948319, 0.2762817
0.2619521, 0.2948319, 0.2762817
0.261402, 0.2948319, 0.2762817
0.2608519, 0.2948319, 0.2762817
0.3836075, 0.3199279, 0.3255323
0.3829679, 0.3199279, 0.3255323
0.3823284, 0.3199279, 0.3255323
0.3816889, 0.3199279, 0.3255323
0.3810494, 0.3199279, 0.3255323
0.3804098, 0.3199279, 0.3255323
0.3797703, 0.3199279, 0.3255323
0.379141, 0.3193038, 0.3247459
0.3785032, 0.3193038, 0.3247459
0.3778653, 0.3193038, 0.3247459
0.3772275, 0.3193038, 0.3247459
0.3765897, 0.3193038, 0.3247459
0.3759705, 0.3186797, 0.3239595
0.3753343, 0.3186797, 0.3239595
0.3746982, 0.3186797, 0.3239595
0.3740857, 0.3180557, 0.3231732
0.3734513, 0.3180557, 0.3231732
0.3728168, 0.3180557, 0.3231732
0.3721823, 0.3180557, 0.3231732
0.3715783, 0.3174316, 0.3223868
0.3709455, 0.3174316, 0.3223868
0.3703128, 0.3174316, 0.3223868
0.36968, 0.3174316, 0.3223868
0.3690844, 0.3168075, 0.3216004
0.3684534, 0.3168075, 0.3216004
0.3678223, 0.3168075, 0.3216004
0.3671912, 0.3168075, 0.3216004
0.366604, 0.3161834, 0.3208141
0.3659746, 0.3161834, 0.3208141
0.3653452, 0.3161834, 0.3208141
0.3647158, 0.3161834, 0.3208141
0.3640864, 0.3161834, 0.3208141
0.2736067, 0.2939588, 0.2812462
0.2730516, 0.2939588, 0.2812462
0.2728323, 0.2933187, 0.2804749
0.2722788, 0.2933187, 0.2804749
0.2717254, 0.2933187, 0.2804749
0.2711719, 0.2933187, 0.2804749
0.2706184, 0.2933187, 0.2804749
0.2700649, 0.2933187, 0.2804749
0.2695115, 0.2933187, 0.2804749
0.268958, 0.2933187, 0.2804749
0.2684045, 0.2933187, 0.2804749
0.2678511, 0.2933187, 0.2804749
0.2672976, 0.2933187, 0.2804749
0.2667441, 0.2933187, 0.2804749
0.2661907, 0.2933187, 0.2804749
0.2656372, 0.2933187, 0.2804749
0.2650837, 0.2933187, 0.2804749
0.2645303, 0.2933187, 0.2804749
0.2639768, 0.2933187, 0.2804749
0.2634234, 0.2933187, 0.2804749
0.2628699, 0.2933187, 0.2804749
0.2623164, 0.2933187, 0.2804749
0.2617629, 0.2933187, 0.2804749
0.2612095, 0.2933187, 0.2804749
0.260656, 0.2933187, 0.2804749
0.2601025, 0.2933187, 0.2804749
0.4584314, 0.306085, 0.2904177
0.3634571, 0.3161834, 0.3208141
0.3628276, 0.3161834, 0.3208141
0.3621982, 0.3161834, 0.3208141
0.3615688, 0.3161834, 0.3208141
0.3609394, 0.3161834, 0.3208141
0.3603709, 0.3155593, 0.3200277
0.3597431, 0.3155593, 0.3200277
0.3591155, 0.3155593, 0.3200277
0.3584877, 0.3155593, 0.3200277
0.3579276, 0.3149352, 0.3192413
0.3573709, 0.3143111, 0.318455
0.3567465, 0.3143111, 0.318455
0.3561222, 0.3143111, 0.318455
0.3555722, 0.3136871, 0.3176686
0.3549495, 0.3136871, 0.3176686
0.3544046, 0.313063, 0.3168823
0.3537836, 0.313063, 0.3168823
0.3532437, 0.3124389, 0.3160959
0.3526244, 0.3124389, 0.3160959
0.3520896, 0.3118148, 0.3153095
0.351472, 0.3118148, 0.3153095
0.3509423, 0.3111907, 0.3145232
0.3503264, 0.3111907, 0.3145232
0.3498017, 0.3105667, 0.3137368
0.3491875, 0.3105667, 0.3137368
0.3486678, 0.3099426, 0.3129504
0.3480553, 0.3099426, 0.3129504
0.3475407, 0.3093185, 0.3121641
0.3469299, 0.3093185, 0.3121641
0.3464204, 0.3086944, 0.3113777
0.3836075, 0.3208557, 0.3246518
0.3829679, 0.3208557, 0.3246518
0.3823284, 0.3208557, 0.3246518
0.3816889, 0.3208557, 0.3246518
0.3810494, 0.3208557, 0.3246518
0.3804098, 0.3208557, 0.3246518
0.3797788, 0.3202292, 0.3238678
0.379141, 0.3202292, 0.3238678
0.3785032, 0.3202292, 0.3238678
0.3778653, 0.3202292, 0.3238678
0.3772275, 0.3202292, 0.3238678
0.3766066, 0.3196026, 0.3230837
0.3759705, 0.3196026, 0.3230837
0.3753343, 0.3196026, 0.3230837
0.3747202, 0.3189761, 0.3222997
0.3740857, 0.3189761, 0.3222997
0.3734767, 0.3183496, 0.3215157
0.3728439, 0.3183496, 0.3215157
0.3722111, 0.3183496, 0.3215157
0.3715783, 0.3183496, 0.3215157
0.3709777, 0.317723, 0.3207316
0.3703466, 0.317723, 0.3207316
0.3697155, 0.317723, 0.3207316
0.3690844, 0.317723, 0.3207316
0.3684922, 0.3170965, 0.3199476
0.3678629, 0.3170965, 0.3199476
0.3672335, 0.3170965, 0.3199476
0.366604, 0.3170965, 0.3199476
0.3659746, 0.3170965, 0.3199476
0.3653926, 0.31647, 0.3191635
0.3647649, 0.31647, 0.3191635
0.3641371, 0.31647, 0.3191635
0.4437228, 0.3319892, 0.3140866
0.4430833, 0.3319892, 0.3140866
0.4424437, 0.3319892, 0.3140866
0.4418042, 0.3319892, 0.3140866
0.4411647, 0.3319892, 0.3140866
0.4405251, 0.3319892, 0.3140866
0.4398856, 0.3319892, 0.3140866
0.4392461, 0.3319892, 0.3140866
0.4386066, 0.3319892, 0.3140866
0.4379671, 0.3319892, 0.3140866
0.4373275, 0.3319892, 0.3140866
0.436688, 0.3319892, 0.3140866
0.4361885, 0.3326451, 0.3148427
0.4355472, 0.3326451, 0.3148427
0.434906, 0.3326451, 0.3148427
0.4342648, 0.3326451, 0.3148427
0.4336236, 0.3326451, 0.3148427
0.4329824, 0.3326451, 0.3148427
0.4323412, 0.3326451, 0.3148427
0.4317, 0.3326451, 0.3148427
0.4310588, 0.3326451, 0.3148427
0.4304175, 0.3326451, 0.3148427
0.4297763, 0.3326451, 0.3148427
0.4291351, 0.3326451, 0.3148427
0.4283742, 0.3319892, 0.3140866
0.4277347, 0.3319892, 0.3140866
0.4270951, 0.3319892, 0.3140866
0.4264556, 0.3319892, 0.3140866
0.4258161, 0.3319892, 0.3140866
0.4251766, 0.3319892, 0.3140866
0.363981, 0.3237162, 0.2998797
0.3634225, 0.3230542, 0.2991294
0.3628675, 0.3223922, 0.298379
0.3622583, 0.3223922, 0.298379
0.3617083, 0.3217301, 0.2976287
0.3611009, 0.3217301, 0.2976287
0.3605559, 0.3210681, 0.2968783
0.3599501, 0.3210681, 0.2968783
0.3594102, 0.320406, 0.2961279
0.3588061, 0.320406, 0.2961279
0.3582713, 0.3197441, 0.2953776
0.3577399, 0.319082, 0.2946272
0.3571392, 0.319082, 0.2946272
0.3566128, 0.31842, 0.2938769
0.3560137, 0.31842, 0.2938769
0.3554924, 0.3177579, 0.2931265
0.3549745, 0.3170959, 0.2923762
0.3543788, 0.3170959, 0.2923762
0.353866, 0.3164339, 0.2916258
0.353272, 0.3164339, 0.2916258
0.3527642, 0.3157719, 0.2908754
0.3521719, 0.3157719, 0.2908754
0.3516691, 0.3151098, 0.2901251
0.3510785, 0.3151098, 0.2901251
0.3505808, 0.3144478, 0.2893747
0.3499919, 0.3144478, 0.2893747
0.349403, 0.3144478, 0.2893747
0.3489121, 0.3137858, 0.2886244
0.3483249, 0.3137858, 0.2886244
0.347839, 0.3131237, 0.287874
0.3472534, 0.3131237, 0.287874
0.3466679, 0.3131237, 0.287874
0.424537, 0.3319892, 0.3140866
0.4238975, 0.3319892, 0.3140866
0.423258, 0.3319892, 0.3140866
0.4226184, 0.3319892, 0.3140866
0.421979, 0.3319892, 0.3140866
0.4213394, 0.3319892, 0.3140866
0.4206999, 0.3319892, 0.3140866
0.4200604, 0.3319892, 0.3140866
0.4194208, 0.3319892, 0.3140866
0.4187813, 0.3319892, 0.3140866
0.4181418, 0.3319892, 0.3140866
0.4175023, 0.3319892, 0.3140866
0.4169521, 0.3326451, 0.3148427
0.4163109, 0.3326451, 0.3148427
0.4156697, 0.3326451, 0.3148427
0.4150285, 0.3326451, 0.3148427
0.4143873, 0.3326451, 0.3148427
0.2599255, 0.2950802, 0.2774247
0.2593737, 0.2950802, 0.2774247
0.2588219, 0.2950802, 0.2774247
0.2582701, 0.2950802, 0.2774247
0.2577183, 0.2950802, 0.2774247
0.2571666, 0.2950802, 0.2774247
0.2566147, 0.2950802, 0.2774247
0.256063, 0.2950802, 0.2774247
0.2555112, 0.2950802, 0.2774247
0.2549594, 0.2950802, 0.2774247
0.2544076, 0.2950802, 0.2774247
0.2538559, 0.2950802, 0.2774247
0.2537007, 0.2944329, 0.2766604
0.2531506, 0.2944329, 0.2766604
0.2526005, 0.2944329, 0.2766604
0.2520504, 0.2944329, 0.2766604
0.2515004, 0.2944329, 0.2766604
0.2509502, 0.2944329, 0.2766604
0.2504002, 0.2944329, 0.2766604
0.2498501, 0.2944329, 0.2766604
0.2497101, 0.2937855, 0.2758961
0.3268643, 0.3065419, 0.2982558
0.3262737, 0.3065419, 0.2982558
0.3256832, 0.3065419, 0.2982558
0.3250926, 0.3065419, 0.2982558
0.324502, 0.3065419, 0.2982558
0.3239114, 0.3065419, 0.2982558
0.3233208, 0.3065419, 0.2982558
0.3227302, 0.3065419, 0.2982558
0.3221396, 0.3065419, 0.2982558
0.321549, 0.3065419, 0.2982558
0.2217414, 0.2906032, 0.2789161
0.221193, 0.2906032, 0.2789161
0.2206446, 0.2906032, 0.2789161
0.2200962, 0.2906032, 0.2789161
0.2195478, 0.2906032, 0.2789161
0.2189994, 0.2906032, 0.2789161
0.218451, 0.2906032, 0.2789161
0.2179026, 0.2906032, 0.2789161
0.2173542, 0.2906032, 0.2789161
0.2168058, 0.2906032, 0.2789161
0.2162574, 0.2906032, 0.2789161
0.215709, 0.2906032, 0.2789161
0.3999897, 0.3293439, 0.3290042
0.3992929, 0.3287101, 0.3282271
0.3986398, 0.3287101, 0.3282271
0.3979868, 0.3287101, 0.3282271
0.3973338, 0.3287101, 0.3282271
0.3966808, 0.3287101, 0.3282271
0.3959941, 0.3280762, 0.32745
0.3953427, 0.3280762, 0.32745
0.3946914, 0.3280762, 0.32745
0.3940115, 0.3274423, 0.3266729
0.3933618, 0.3274423, 0.3266729
0.3926869, 0.3268085, 0.3258958
0.392039, 0.3268085, 0.3258958
0.3913692, 0.3261746, 0.3251188
0.3907229, 0.3261746, 0.3251188
0.3900581, 0.3255407, 0.3243417
0.3894136, 0.3255407, 0.3243417
0.388769, 0.3255407, 0.3243417
0.388111, 0.3249068, 0.3235646
0.3874681, 0.3249068, 0.3235646
0.3868252, 0.3249068, 0.3235646
0.3861823, 0.3249068, 0.3235646
0.3855327, 0.324273, 0.3227876
0.3848915, 0.324273, 0.3227876
0.3842503, 0.324273, 0.3227876
0.4580685, 0.3067324, 0.291182
0.4574864, 0.3067324, 0.291182
0.4569042, 0.3067324, 0.291182
0.4563221, 0.3067324, 0.291182
0.4557399, 0.3067324, 0.291182
0.4553669, 0.3073797, 0.2919463
0.4547831, 0.3073797, 0.2919463
0.4541993, 0.3073797, 0.2919463
0.4536154, 0.3073797, 0.2919463
0.4530316, 0.3073797, 0.2919463
0.4524477, 0.3073797, 0.2919463
0.4518639, 0.3073797, 0.2919463
0.4514774, 0.308027, 0.2927106
0.4508919, 0.308027, 0.2927106
0.4503064, 0.308027, 0.2927106
0.4497208, 0.308027, 0.2927106
0.4493259, 0.3086744, 0.2934749
0.4487387, 0.3086744, 0.2934749
0.4481514, 0.3086744, 0.2934749
0.4475642, 0.3086744, 0.2934749
0.446977, 0.3086744, 0.2934749
0.4465719, 0.3093217, 0.2942392
0.4459831, 0.3093217, 0.2942392
0.4483715, 0.3293893, 0.3179324
0.4477303, 0.3293893, 0.3179324
0.4470891, 0.3293893, 0.3179324
0.4464478, 0.3293893, 0.3179324
0.4458066, 0.3293893, 0.3179324
0.4009218, 0.3326451, 0.3148427
0.400326, 0.333301, 0.3155989
0.3996831, 0.333301, 0.3155989
0.3990403, 0.333301, 0.3155989
0.3983974, 0.333301, 0.3155989
0.3977932, 0.3339569, 0.316355
0.3971486, 0.3339569, 0.316355
0.396504, 0.3339569, 0.316355
0.3958594, 0.3339569, 0.316355
0.3952148, 0.3339569, 0.316355
0.3945703, 0.3339569, 0.316355
0.3939257, 0.3339569, 0.316355
0.3932542, 0.333301, 0.3155989
0.392586, 0.3326451, 0.3148427
0.4627258, 0.3075769, 0.2903806
0.4621436, 0.3075769, 0.2903806
0.4613338, 0.3069271, 0.2896186
0.4607533, 0.3069271, 0.2896186
0.4601728, 0.3069271, 0.2896186
0.4595923, 0.3069271, 0.2896186
0.4590119, 0.3069271, 0.2896186
0.4584314, 0.3069271, 0.2896186
0.2270334, 0.2926318, 0.2728552
0.22649, 0.2926318, 0.2728552
0.2254034, 0.2926318, 0.2728552
0.22486, 0.2926318, 0.2728552
0.2243167, 0.2926318, 0.2728552
0.2237733, 0.2926318, 0.2728552
0.22323, 0.2926318, 0.2728552
0.2221888, 0.2932816, 0.2736172
0.2216437, 0.2932816, 0.2736172
0.2210987, 0.2932816, 0.2736172
0.2205537, 0.2932816, 0.2736172
0.2200086, 0.2932816, 0.2736172
0.2194636, 0.2932816, 0.2736172
0.2184106, 0.2939314, 0.2743791
0.2178639, 0.2939314, 0.2743791
0.3461888, 0.3124617, 0.2871237
0.345605, 0.3124617, 0.2871237
0.3450211, 0.3124617, 0.2871237
0.3445487, 0.3117997, 0.2863733
0.3439666, 0.3117997, 0.2863733
0.3433844, 0.3117997, 0.2863733
0.3429188, 0.3111377, 0.285623
0.3423383, 0.3111377, 0.285623
0.3417578, 0.3111377, 0.285623
0.3412989, 0.3104756, 0.2848726
0.3407202, 0.3104756, 0.2848726
0.3401414, 0.3104756, 0.2848726
0.3395626, 0.3104756, 0.2848726
0.3391122, 0.3098136, 0.2841222
0.3385351, 0.3098136, 0.2841222
0.337958, 0.3098136, 0.2841222
0.3375143, 0.3091516, 0.2833719
0.3369389, 0.3091516, 0.2833719
0.3365003, 0.3084896, 0.2826215
0.3359265, 0.3084896, 0.2826215
0.3354929, 0.3078275, 0.2818712
0.3349209, 0.3078275, 0.2818712
0.3343489, 0.3078275, 0.2818712
0.3339221, 0.3071655, 0.2811208
0.3333517, 0.3071655, 0.2811208
0.3327814, 0.3071655, 0.2811208
0.3323613, 0.3065035, 0.2803704
0.3317927, 0.3065035, 0.2803704
0.331224, 0.3065035, 0.2803704
0.3306553, 0.3065035, 0.2803704
0.3300867, 0.3065035, 0.2803704
0.329518, 0.3065035, 0.2803704
0.3636142, 0.3174813, 0.3154466
0.3629899, 0.3174813, 0.3154466
0.3623655, 0.3174813, 0.3154466
0.3617412, 0.3174813, 0.3154466
0.361176, 0.3168487, 0.3146684
0.3605534, 0.3168487, 0.3146684
0.3599307, 0.3168487, 0.3146684
0.3593723, 0.316216, 0.3138902
0.3587513, 0.316216, 0.3138902
0.3581979, 0.3155833, 0.3131119
0.3575786, 0.3155833, 0.3131119
0.3570303, 0.3149507, 0.3123337
0.3564854, 0.314318, 0.3115554
0.3558695, 0.314318, 0.3115554
0.3553296, 0.3136854, 0.3107772
0.3547154, 0.3136854, 0.3107772
0.3541806, 0.3130527, 0.309999
0.353568, 0.3130527, 0.309999
0.3530383, 0.3124201, 0.3092208
0.3524274, 0.3124201, 0.3092208
0.3519028, 0.3117875, 0.3084425
0.3512936, 0.3117875, 0.3084425
0.350774, 0.3111548, 0.3076643
0.3501665, 0.3111548, 0.3076643
0.3496519, 0.3105221, 0.306886
0.3490461, 0.3105221, 0.306886
0.3485366, 0.3098895, 0.3061078
0.3479325, 0.3098895, 0.3061078
0.3474281, 0.3092568, 0.3053296
0.3468257, 0.3092568, 0.3053296
0.3463263, 0.3086242, 0.3045513
0.3457256, 0.3086242, 0.3045513
0.2871879, 0.3145005, 0.3003536
0.2868556, 0.3138531, 0.2995893
0.2238239, 0.2924909, 0.2743675
0.2232788, 0.2924909, 0.2743675
0.2227338, 0.2924909, 0.2743675
0.2211442, 0.2931382, 0.2751318
0.2205975, 0.2931382, 0.2751318
0.2200508, 0.2931382, 0.2751318
0.219504, 0.2931382, 0.2751318
0.2189573, 0.2931382, 0.2751318
0.2184106, 0.2931382, 0.2751318
0.2178639, 0.2931382, 0.2751318
0.2168058, 0.2937855, 0.2758961
0.2162574, 0.2937855, 0.2758961
0.4451654, 0.3293893, 0.3179324
0.4445242, 0.3293893, 0.3179324
0.443883, 0.3293893, 0.3179324
0.4432418, 0.3293893, 0.3179324
0.4426006, 0.3293893, 0.3179324
0.4419594, 0.3293893, 0.3179324
0.4413182, 0.3293893, 0.3179324
0.4406769, 0.3293893, 0.3179324
0.4400357, 0.3293893, 0.3179324
0.4393945, 0.3293893, 0.3179324
0.4387533, 0.3293893, 0.3179324
0.4381121, 0.3293893, 0.3179324
0.4374709, 0.3293893, 0.3179324
0.4369713, 0.3300366, 0.3186967
0.4361885, 0.3293893, 0.3179324
0.4356855, 0.3300366, 0.3186967
0.4350426, 0.3300366, 0.3186967
0.4343997, 0.3300366, 0.3186967
0.4337568, 0.3300366, 0.3186967
0.4331139, 0.3300366, 0.3186967
0.432471, 0.3300366, 0.3186967
0.4580685, 0.3075769, 0.2903806
0.4574864, 0.3075769, 0.2903806
0.4569042, 0.3075769, 0.2903806
0.4563221, 0.3075769, 0.2903806
0.4557399, 0.3075769, 0.2903806
0.4551578, 0.3075769, 0.2903806
0.4545756, 0.3075769, 0.2903806
0.4541993, 0.3082267, 0.2911426
0.4536154, 0.3082267, 0.2911426
0.4530316, 0.3082267, 0.2911426
0.4524477, 0.3082267, 0.2911426
0.4518639, 0.3082267, 0.2911426
0.4512801, 0.3082267, 0.2911426
0.4506962, 0.3082267, 0.2911426
0.4503064, 0.3088765, 0.2919045
0.4497208, 0.3088765, 0.2919045
0.4491353, 0.3088765, 0.2919045
0.4485497, 0.3088765, 0.2919045
0.4481514, 0.3095263, 0.2926665
0.4475642, 0.3095263, 0.2926665
0.446977, 0.3095263, 0.2926665
0.4465719, 0.310176, 0.2934285
0.4458026, 0.3095263, 0.2926665
0.4453942, 0.310176, 0.2934285
0.4477303, 0.3303195, 0.3170496
0.4469204, 0.3296697, 0.3162876
0.4464478, 0.3303195, 0.3170496
0.4456413, 0.3296697, 0.3162876
0.4574864, 0.3063101, 0.2915828
0.4569042, 0.3063101, 0.2915828
0.4563221, 0.3063101, 0.2915828
0.4557399, 0.3063101, 0.2915828
0.4553669, 0.3069562, 0.2923482
0.4547831, 0.3069562, 0.2923482
0.4541993, 0.3069562, 0.2923482
0.4536154, 0.3069562, 0.2923482
0.4530316, 0.3069562, 0.2923482
0.4524477, 0.3069562, 0.2923482
0.4518639, 0.3069562, 0.2923482
0.4514774, 0.3076023, 0.2931137
0.4508919, 0.3076023, 0.2931137
0.4503064, 0.3076023, 0.2931137
0.4497208, 0.3076023, 0.2931137
0.4493259, 0.3082484, 0.2938791
0.4487387, 0.3082484, 0.2938791
0.4481514, 0.3082484, 0.2938791
0.4477498, 0.3088945, 0.2946446
0.4471608, 0.3088945, 0.2946446
0.4465719, 0.3088945, 0.2946446
0.4483715, 0.3289241, 0.3183738
0.4477303, 0.3289241, 0.3183738
0.4470891, 0.3289241, 0.3183738
0.4464478, 0.3289241, 0.3183738
0.4458066, 0.3289241, 0.3183738
0.3276663, 0.3067324, 0.291182
0.3270841, 0.3067324, 0.291182
0.3263382, 0.3073797, 0.2919463
0.3257544, 0.3073797, 0.2919463
0.3251705, 0.3073797, 0.2919463
0.3245867, 0.3073797, 0.2919463
0.3240029, 0.3073797, 0.2919463
0.323419, 0.3073797, 0.2919463
0.3228352, 0.3073797, 0.2919463
0.3220758, 0.308027, 0.2927106
0.3214902, 0.308027, 0.2927106
0.3209047, 0.308027, 0.2927106
0.3203192, 0.308027, 0.2927106
0.3197336, 0.308027, 0.2927106
0.3191481, 0.308027, 0.2927106
0.3185626, 0.308027, 0.2927106
0.3179771, 0.308027, 0.2927106
0.3172024, 0.3086744, 0.2934749
0.3166153, 0.3086744, 0.2934749
0.316028, 0.3086744, 0.2934749
0.3154408, 0.3086744, 0.2934749
0.3148536, 0.3086744, 0.2934749
0.3142664, 0.3086744, 0.2934749
0.3136792, 0.3086744, 0.2934749
0.3836075, 0.3213196, 0.3242116
0.3829679, 0.3213196, 0.3242116
0.3823284, 0.3213196, 0.3242116
0.3816889, 0.3213196, 0.3242116
0.3810494, 0.3213196, 0.3242116
0.3804098, 0.3213196, 0.3242116
0.3797788, 0.3206919, 0.3234287
0.379141, 0.3206919, 0.3234287
0.3785032, 0.3206919, 0.3234287
0.3778653, 0.3206919, 0.3234287
0.3772275, 0.3206919, 0.3234287
0.3766066, 0.3200641, 0.3226458
0.3759705, 0.3200641, 0.3226458
0.3753546, 0.3194363, 0.321863
0.3747202, 0.3194363, 0.321863
0.3740857, 0.3194363, 0.321863
0.3734767, 0.3188086, 0.3210801
0.3728439, 0.3188086, 0.3210801
0.3722111, 0.3188086, 0.3210801
0.3716088, 0.3181808, 0.3202972
0.3709777, 0.3181808, 0.3202972
0.3703466, 0.3181808, 0.3202972
0.3697155, 0.3181808, 0.3202972
0.3691216, 0.3175531, 0.3195143
0.3684922, 0.3175531, 0.3195143
0.3678629, 0.3175531, 0.3195143
0.3672335, 0.3175531, 0.3195143
0.366604, 0.3175531, 0.3195143
0.3660203, 0.3169253, 0.3187314
0.3653926, 0.3169253, 0.3187314
0.3647649, 0.3169253, 0.3187314
0.3641371, 0.3169253, 0.3187314
0.2761531, 0.2965305, 0.277427
0.2755996, 0.2965305, 0.277427
0.2750461, 0.2965305, 0.277427
0.2744927, 0.2965305, 0.277427
0.2739392, 0.2965305, 0.277427
0.2733858, 0.2965305, 0.277427
0.2728323, 0.2965305, 0.277427
0.2722788, 0.2965305, 0.277427
0.2717254, 0.2965305, 0.277427
0.2711719, 0.2965305, 0.277427
0.2706184, 0.2965305, 0.277427
0.2700649, 0.2965305, 0.277427
0.2695115, 0.2965305, 0.277427
0.2693057, 0.2958807, 0.2766651
0.2687539, 0.2958807, 0.2766651
0.2682021, 0.2958807, 0.2766651
0.2676504, 0.2958807, 0.2766651
0.267453, 0.2952309, 0.2759031
0.2669029, 0.2952309, 0.2759031
0.2663528, 0.2952309, 0.2759031
0.2658027, 0.2952309, 0.2759031
0.2656138, 0.2945811, 0.2751411
0.2650654, 0.2945811, 0.2751411
0.264517, 0.2945811, 0.2751411
0.2639686, 0.2945811, 0.2751411
0.2634202, 0.2945811, 0.2751411
0.2628718, 0.2945811, 0.2751411
0.2623234, 0.2945811, 0.2751411
0.261775, 0.2945811, 0.2751411
0.2612266, 0.2945811, 0.2751411
0.2179026, 0.2902054, 0.2792936
0.3979481, 0.330911, 0.3247599
0.3972968, 0.330911, 0.3247599
0.3966454, 0.330911, 0.3247599
0.3959941, 0.330911, 0.3247599
0.3953427, 0.330911, 0.3247599
0.3946914, 0.330911, 0.3247599
0.3940401, 0.330911, 0.3247599
0.3933618, 0.3302698, 0.3239898
0.3927122, 0.3302698, 0.3239898
0.3920625, 0.3302698, 0.3239898
0.3914129, 0.3302698, 0.3239898
0.390743, 0.3296285, 0.3232197
0.3900951, 0.3296285, 0.3232197
0.3894303, 0.3289873, 0.3224496
0.3887841, 0.3289873, 0.3224496
0.3881378, 0.3289873, 0.3224496
0.3874915, 0.3289873, 0.3224496
0.3868352, 0.3283461, 0.3216795
0.3861906, 0.3283461, 0.3216795
0.385546, 0.3283461, 0.3216795
0.3849014, 0.3283461, 0.3216795
0.3842569, 0.3283461, 0.3216795
0.2233866, 0.2925922, 0.2770286
0.2233311, 0.2919485, 0.2762608
0.2227843, 0.2919485, 0.2762608
0.2222376, 0.2919485, 0.2762608
0.2216909, 0.2919485, 0.2762608
0.2206446, 0.2925922, 0.2770286
0.2205975, 0.2919485, 0.2762608
0.2200508, 0.2919485, 0.2762608
0.2189994, 0.2925922, 0.2770286
0.218451, 0.2925922, 0.2770286
0.2179026, 0.2925922, 0.2770286
0.2173542, 0.2925922, 0.2770286
0.2168058, 0.2925922, 0.2770286
0.2162574, 0.2925922, 0.2770286
0.215709, 0.2925922, 0.2770286
0.2417036, 0.2926318, 0.2728552
0.2411603, 0.2926318, 0.2728552
0.2406169, 0.2926318, 0.2728552
0.2400736, 0.2926318, 0.2728552
0.2395303, 0.2926318, 0.2728552
0.2389869, 0.2926318, 0.2728552
0.2384436, 0.2926318, 0.2728552
0.2379002, 0.2926318, 0.2728552
0.2373569, 0.2926318, 0.2728552
0.2368135, 0.2926318, 0.2728552
0.2362702, 0.2926318, 0.2728552
0.2352695, 0.2932816, 0.2736172
0.2347245, 0.2932816, 0.2736172
0.2341794, 0.2932816, 0.2736172
0.2336344, 0.2932816, 0.2736172
0.2330894, 0.2932816, 0.2736172
0.2325443, 0.2932816, 0.2736172
0.2319993, 0.2932816, 0.2736172
0.2314543, 0.2932816, 0.2736172
0.2313801, 0.2926318, 0.2728552
0.2308368, 0.2926318, 0.2728552
0.2302934, 0.2926318, 0.2728552
0.2297501, 0.2926318, 0.2728552
0.2292067, 0.2926318, 0.2728552
0.2286634, 0.2926318, 0.2728552
0.2281201, 0.2926318, 0.2728552
0.2275767, 0.2926318, 0.2728552
0.3836091, 0.3238078, 0.323229
0.3829679, 0.3231752, 0.3224507
0.3823284, 0.3231752, 0.3224507
0.3816889, 0.3231752, 0.3224507
0.3810494, 0.3231752, 0.3224507
0.3804098, 0.3231752, 0.3224507
0.3797788, 0.3225425, 0.3216725
0.379141, 0.3225425, 0.3216725
0.3785032, 0.3225425, 0.3216725
0.3778653, 0.3225425, 0.3216725
0.3772275, 0.3225425, 0.3216725
0.3766066, 0.3219099, 0.3208942
0.3759705, 0.3219099, 0.3208942
0.3753343, 0.3219099, 0.3208942
0.3747202, 0.3212772, 0.320116
0.3740857, 0.3212772, 0.320116
0.3734767, 0.3206446, 0.3193378
0.3728439, 0.3206446, 0.3193378
0.3722111, 0.3206446, 0.3193378
0.3716088, 0.3200119, 0.3185596
0.3709777, 0.3200119, 0.3185596
0.3703466, 0.3200119, 0.3185596
0.369751, 0.3193793, 0.3177813
0.3691216, 0.3193793, 0.3177813
0.3684922, 0.3193793, 0.3177813
0.3679034, 0.3187466, 0.3170031
0.3672757, 0.3187466, 0.3170031
0.366648, 0.3187466, 0.3170031
0.3660203, 0.3187466, 0.3170031
0.3654399, 0.318114, 0.3162248
0.3648139, 0.318114, 0.3162248
0.3641879, 0.318114, 0.3162248
0.3836075, 0.3203918, 0.325092
0.3829679, 0.3203918, 0.325092
0.3823284, 0.3203918, 0.325092
0.3816889, 0.3203918, 0.325092
0.3810494, 0.3203918, 0.325092
0.3804098, 0.3203918, 0.325092
0.3797788, 0.3197665, 0.3243068
0.379141, 0.3197665, 0.3243068
0.3785032, 0.3197665, 0.3243068
0.3778653, 0.3197665, 0.3243068
0.3772275, 0.3197665, 0.3243068
0.3766066, 0.3191412, 0.3235216
0.3759705, 0.3191412, 0.3235216
0.3753343, 0.3191412, 0.3235216
0.3747202, 0.3185159, 0.3227364
0.3740857, 0.3185159, 0.3227364
0.3734513, 0.3185159, 0.3227364
0.3728439, 0.3178906, 0.3219512
0.3722111, 0.3178906, 0.3219512
0.3715783, 0.3178906, 0.3219512
0.3709455, 0.3178906, 0.3219512
0.3703466, 0.3172653, 0.321166
0.3697155, 0.3172653, 0.321166
0.3690844, 0.3172653, 0.321166
0.3684534, 0.3172653, 0.321166
0.3678223, 0.3172653, 0.321166
0.3672335, 0.31664, 0.3203808
0.366604, 0.31664, 0.3203808
0.3659746, 0.31664, 0.3203808
0.3653452, 0.31664, 0.3203808
0.3647158, 0.31664, 0.3203808
0.3641371, 0.3160146, 0.3195956
0.3451249, 0.3081884, 0.3049648
0.3445242, 0.3081884, 0.3049648
0.3440332, 0.307557, 0.3041855
0.3434342, 0.307557, 0.3041855
0.3428352, 0.307557, 0.3041855
0.3422361, 0.307557, 0.3041855
0.3417536, 0.3069256, 0.303406
0.3411563, 0.3069256, 0.303406
0.3405589, 0.3069256, 0.303406
0.3399616, 0.3069256, 0.303406
0.3393643, 0.3069256, 0.303406
0.3387669, 0.3069256, 0.303406
0.3381696, 0.3069256, 0.303406
0.3375722, 0.3069256, 0.303406
0.3369749, 0.3069256, 0.303406
0.3365093, 0.3062941, 0.3026267
0.3359136, 0.3062941, 0.3026267
0.335318, 0.3062941, 0.3026267
0.3347223, 0.3062941, 0.3026267
0.3341267, 0.3062941, 0.3026267
0.333531, 0.3062941, 0.3026267
0.3329354, 0.3062941, 0.3026267
0.3324832, 0.3056627, 0.3018473
0.3318892, 0.3056627, 0.3018473
0.3312953, 0.3056627, 0.3018473
0.3307013, 0.3056627, 0.3018473
0.3301074, 0.3056627, 0.3018473
0.3295134, 0.3056627, 0.3018473
0.3452313, 0.3079915, 0.3037731
0.3446322, 0.3079915, 0.3037731
0.3440332, 0.3079915, 0.3037731
0.3434342, 0.3079915, 0.3037731
0.3429483, 0.3073589, 0.3029949
0.342351, 0.3073589, 0.3029949
0.3417536, 0.3073589, 0.3029949
0.3411563, 0.3073589, 0.3029949
0.3406788, 0.3067262, 0.3022166
0.3400832, 0.3067262, 0.3022166
0.3394875, 0.3067262, 0.3022166
0.3388919, 0.3067262, 0.3022166
0.3382962, 0.3067262, 0.3022166
0.3377006, 0.3067262, 0.3022166
0.3371049, 0.3067262, 0.3022166
0.3365093, 0.3067262, 0.3022166
0.336047, 0.3060936, 0.3014384
0.335318, 0.3067262, 0.3022166
0.3348591, 0.3060936, 0.3014384
0.3342651, 0.3060936, 0.3014384
0.3336712, 0.3060936, 0.3014384
0.3330772, 0.3060936, 0.3014384
0.3324832, 0.3060936, 0.3014384
0.3318892, 0.3060936, 0.3014384
0.3312953, 0.3060936, 0.3014384
0.3307013, 0.3060936, 0.3014384
0.3302576, 0.3054609, 0.3006602
0.3296653, 0.3054609, 0.3006602
0.3289194, 0.3060936, 0.3014384
0.3284808, 0.3054609, 0.3006602
0.3278885, 0.3054609, 0.3006602
0.2595491, 0.2925158, 0.2812369
0.2589956, 0.2925158, 0.2812369
0.2584421, 0.2925158, 0.2812369
0.2578887, 0.2925158, 0.2812369
0.2573352, 0.2925158, 0.2812369
0.2571666, 0.2918783, 0.2804633
0.2562283, 0.2925158, 0.2812369
0.256063, 0.2918783, 0.2804633
0.2555112, 0.2918783, 0.2804633
0.2549594, 0.2918783, 0.2804633
0.2544076, 0.2918783, 0.2804633
0.2538559, 0.2918783, 0.2804633
0.2533041, 0.2918783, 0.2804633
0.2527523, 0.2918783, 0.2804633
0.4662187, 0.3096883, 0.288377
0.4656366, 0.3096883, 0.288377
0.4650544, 0.3096883, 0.288377
0.4644722, 0.3096883, 0.288377
0.4638901, 0.3096883, 0.288377
0.4633079, 0.3096883, 0.288377
0.4627258, 0.3096883, 0.288377
0.4621436, 0.3096883, 0.288377
0.4615615, 0.3096883, 0.288377
0.4609793, 0.3096883, 0.288377
0.4603972, 0.3096883, 0.288377
0.459815, 0.3096883, 0.288377
0.4592329, 0.3096883, 0.288377
0.4586507, 0.3096883, 0.288377
0.3972597, 0.3321547, 0.322201
0.3966101, 0.3321547, 0.322201
0.3959604, 0.3321547, 0.322201
0.3953108, 0.3321547, 0.322201
0.3946611, 0.3321547, 0.322201
0.3940115, 0.3321547, 0.322201
0.3933618, 0.3321547, 0.322201
0.3927122, 0.3321547, 0.322201
0.3920625, 0.3321547, 0.322201
0.3914129, 0.3321547, 0.322201
0.3907632, 0.3321547, 0.322201
0.3901136, 0.3321547, 0.322201
0.3894471, 0.3315086, 0.3214356
0.3887992, 0.3315086, 0.3214356
0.3881512, 0.3315086, 0.3214356
0.3874915, 0.3308625, 0.3206701
0.3868453, 0.3308625, 0.3206701
0.386199, 0.3308625, 0.3206701
0.3855527, 0.3308625, 0.3206701
0.3849064, 0.3308625, 0.3206701
0.3842569, 0.3302164, 0.3199047
0.2595491, 0.2921143, 0.2816179
0.2589956, 0.2921143, 0.2816179
0.2584421, 0.2921143, 0.2816179
0.2578887, 0.2921143, 0.2816179
0.2573352, 0.2921143, 0.2816179
0.2571666, 0.291478, 0.2808431
0.2566147, 0.291478, 0.2808431
0.256063, 0.291478, 0.2808431
0.2555112, 0.291478, 0.2808431
0.2374496, 0.2924909, 0.2743675
0.2369046, 0.2924909, 0.2743675
0.2363596, 0.2924909, 0.2743675
0.2358145, 0.2924909, 0.2743675
0.2352695, 0.2924909, 0.2743675
0.2347245, 0.2924909, 0.2743675
0.2341794, 0.2924909, 0.2743675
0.2336344, 0.2924909, 0.2743675
0.2330894, 0.2924909, 0.2743675
0.2325443, 0.2924909, 0.2743675
0.3635618, 0.3176599, 0.3166558
0.3629899, 0.3170284, 0.3158764
0.3623655, 0.3170284, 0.3158764
0.3617412, 0.3170284, 0.3158764
0.3611169, 0.3170284, 0.3158764
0.3605534, 0.316397, 0.315097
0.3599307, 0.316397, 0.315097
0.3593081, 0.316397, 0.315097
0.3587513, 0.3157656, 0.3143176
0.3581303, 0.3157656, 0.3143176
0.3575786, 0.3151341, 0.3135382
0.3569594, 0.3151341, 0.3135382
0.3564127, 0.3145027, 0.3127588
0.3558695, 0.3138713, 0.3119794
0.3552536, 0.3138713, 0.3119794
0.3547154, 0.3132399, 0.3112
0.3541012, 0.3132399, 0.3112
0.353568, 0.3126084, 0.3104206
0.3529555, 0.3126084, 0.3104206
0.3524274, 0.311977, 0.3096412
0.3518166, 0.311977, 0.3096412
0.3512936, 0.3113456, 0.3088618
0.3506844, 0.3113456, 0.3088618
0.3501665, 0.3107142, 0.3080824
0.349559, 0.3107142, 0.3080824
0.3490461, 0.3100827, 0.307303
